-3552.2	-3562.4	-3573.8	-3582.5	-3590.4	-3596.9	-3603.2	-3609.9	-3613.4	-3622.3	-3631.6	-3641	-3641.2	-3648.8	-3655.9	-3662.5	-3670	-3675.3	-3680.6	-3688.9	-3698.3	-3705.1	-3711.3	-3700.7	-3707.6	-3716.1	-3724.7	-3732.1	-3724.7	-3721.7	-3723.2	-3723.5	-3715.3	-3708.2	-3699.4	-3701.7	-3704	-3702.5	-3696.8	-3687.2	-3686	-3684.6	-3683	-3681.1	-3676.2	-3670.5	-3663.3	-3654.4	-3630.4	-3615	-3604.3	-3591	-3564.2	-3530.4	-3511.7	-3524.1	-3532.7	-3524.4	-3514.4	-3507	-3439.7	-3420.6	-3362.7	-3314.9	-3270.2	-3206.3	-3151	-3074.3	-3000.4	-2898.4	-2868.5	-2797.9	-2733.3	-2661.3	-2572.2	-2536	-2429.8	-2347.9	-2237.5	-2015.1	-1967.7	-1739.4	-1509.2	-1456.3	-1223.4	-1018.8	-881.77	-708.61	-631.49	-563.44	-489.52	-437.21	-390.66	-329.82	-295.84	-253.86	-219.2	-195.8	-166.98	-150.68	-145.62	-123.76	-106.81	-111.46	-103.5	-113.96	-108.3	-76.607	-46.155	-42.03	5.9356	7.1444	10.595	11.335	10.355	27.645	54.377	50.659	32.409	25.849	22.157	11.044	-2.6941	-10.025	-12.249	-13.837	-18.017	-66.723	-69.526	-57.246	-90.139	-75.55	-62.218	-106.29	-102.69	-104.23	-82.104	-127.15	-126.45	-138.96	-137.48	-83.156	6.9801	53.472	91.345	116.6	120.02	123.72	125.42	142.56	160.45	153.41	178.02	181.26	180.07	181.37	183.64	184.52	322.87	308.66	70.724	68.825	54.4	40.794	128.71	127.62	30.463	37.641	-7.7549	-6.9098	-8.2009	170.06	35.965	119.11	285.63	484.38	519.44	530.67	530.31	529.74	540.67	489.74	490.61	401.71	306.7	191.21	95.936	65.342	63.027	91.528	-30.075	-31.996	-2.8923	146.73	605.33	552.56	439.93	315.08	245.7	-9.7827	-37.698	-39.555	-27.352	-36.03	-34.505	147.71	149.13	150.37	150.12	508.79	472.63	509.31	505.07	419.33	302.56	148.39	147.6	144.99	8.759	21.486	-38.504	-37.669	96.563	428.39	456.37	535.69	537.06	442.18	361.95	283.64	195.71	145.23	145.79	147.86	146.48	145.41	145.56	91.96	31.075	4.6511	29.113	21.992	0.2693	16.61	17.926	-70.695	-83.481	-97.003	-127.98	-126.09	-110.66	-109.93	-107.15	-106.17	-133.17	-132.73	-108.53	-85.257	-82.522	-80.783	-79.227	-79.853	-75.079	-64.853	-61.659	-47.95	-35.262	-25.053	-21.87	-20.373	-15.049	-3.2497	6.9682	10.669	13.989	17.824	20.13	21.602	25.427	32.619	37.521	41.443	40.083	39.727	44.956	49.375	52.072	53.657	53.399	52.443	51.965	49.686	47.569	44.741	42.137	44.24	39.596	36.282	38.529	32.18	24.648	17.098	8.5022	2.0023	-6.2335	-14.468	-22.658	-31.942	-41.331	-50.881	-59.465	-68.559	-76.299	-84.233	-91.602	-98.398	-107.08	-114.01	-120.41	-127.75	-134.85	-141.07	-145.07	-151.65	-156.03	-158.99	-164.08	-166.94	-168.72	-167.98	-168.97	-169.22	-167.38	-167.51	-165.25	-163.26	-163.17	-171.3	-182.88	-181.9	-181	-182.1	-182.61	-183.16	-181.68	-180.84	-179.65	-176.64	-170.97	-169.19	-167.37	-166.54	-154.31	-141.82	-141.09	-135.93	-131.87	-130.94	-131.65	-137.94
-3555.7	-3566.2	-3572.8	-3580.6	-3589.1	-3594.8	-3596.5	-3608.8	-3612.5	-3619	-3629.3	-3639.5	-3648.3	-3654.1	-3657.9	-3663.4	-3672.9	-3680.8	-3674.7	-3683.6	-3694.2	-3701.6	-3710.3	-3719.7	-3710.8	-3715.2	-3723	-3726.7	-3726.7	-3722.5	-3716.3	-3711.8	-3709.1	-3705.6	-3707.5	-3710.1	-3711.9	-3711.1	-3709.1	-3697.6	-3692.7	-3690.7	-3687.8	-3684.5	-3676.5	-3667.8	-3656.1	-3639.4	-3624.4	-3613.6	-3604.8	-3593.5	-3558.2	-3520.1	-3481.2	-3509.9	-3500	-3487.6	-3476.1	-3463.4	-3449.7	-3366.9	-3322.1	-3293.1	-3208.2	-3185.6	-3109.7	-3033.4	-2942.2	-2896.8	-2838.9	-2782.1	-2717	-2626.8	-2593	-2496.7	-2426	-2301.6	-2259.7	-2037.2	-1899.6	-1762.7	-1607.4	-1480	-1246.6	-1013.9	-885.63	-734.75	-689.08	-590.47	-515.09	-456.22	-408.49	-354.2	-319.74	-241.07	-208.91	-182.8	-155.22	-127.17	-110.76	-91.414	-68.329	-55.842	-67.18	-73.294	-63.843	-57.183	-47.675	6.0265	6.6601	22.868	37.558	44.958	61.188	62.115	65.137	60.361	55.916	55.589	51.552	33.998	1.9315	-1.0488	-3.6433	-5.4403	-30.534	-103.13	-104.7	-107.34	-107.74	-108.67	-110.07	-20.605	-21.974	-45.89	-49.964	-22.628	-22.599	-57.421	-110	-118.84	-122.33	-117.3	18.641	35.396	38.662	86.455	89.629	92.203	95.852	140.3	144.51	175.64	183.52	195.66	198.01	199.71	188.39	197.18	191.94	194.74	63.742	8.2574	10.081	7.4697	7.6483	10.071	67.703	96.188	185.1	181.17	343.21	183.42	183.1	179.99	432.8	481.78	495.29	501.71	466.61	350.51	312.62	155.26	153.46	388.39	294.82	209.64	104.18	74.799	31.156	30.816	-31.88	-32.008	-32.171	101.87	489.42	465.61	439.27	190.59	70.809	72.799	-27.694	-38.809	-36.047	-34.617	147.18	77.347	60.815	61.488	141.34	364.59	301.82	219.14	261.74	186.05	177.37	218	64.784	-81.928	7.685	8.7579	-36.508	-38.678	105.2	373.17	414.24	456.85	474.94	369.45	221.87	144.48	145.81	54.728	23.916	8.8843	9.3884	-36.59	-35.489	-48.311	-60.844	-73.039	-120.02	-130.31	-125.28	-138.72	-138.25	-135.98	-139.47	-129.38	-121.15	-107.85	-106.58	-109.58	-101.23	-93.291	-86.025	-82.607	-75.302	-73.805	-75.288	-75.555	-71.005	-64.127	-56.088	-46.359	-34.757	-24.508	-22.024	-20.322	-18.092	2.7144	5.798	8.0019	11.441	16.233	17.34	20.804	23.57	28.51	31.769	34.948	36.282	44.299	54.784	49.502	48.174	51.101	50.723	48.815	46.186	42.653	40.866	37.351	35.386	32.709	31.89	27.001	30.176	22.573	17.463	9.6322	-0.32269	-9.3616	-16.992	-25.004	-32.893	-42.4	-52.579	-61.531	-72.089	-79.132	-86.336	-93.584	-101.42	-108.09	-113.79	-123.65	-128.6	-136.56	-143.48	-146.57	-150.26	-156.62	-157.94	-162.38	-165.9	-168.61	-168.61	-168.62	-168.65	-167.05	-166.17	-165.35	-163.97	-161.8	-159.53	-166.17	-181.06	-180.09	-181.07	-181.81	-185.46	-185.87	-184.81	-182.7	-180.61	-178.2	-178.03	-177.59	-174.19	-163.26	-163.51	-160.76	-149.08	-136.85	-136.18	-135.36	-134.95	-134.71
-3554.6	-3561.6	-3562.9	-3571.3	-3583.9	-3585.1	-3598.5	-3599.8	-3605.7	-3612.8	-3620.6	-3630.6	-3640.9	-3646	-3645.1	-3654	-3662.1	-3673.9	-3683.5	-3678.4	-3685.9	-3695.2	-3703.5	-3708.2	-3709.6	-3712	-3714.2	-3713.7	-3713.2	-3712.7	-3708.6	-3711.9	-3716.3	-3713.7	-3712	-3713.5	-3714.2	-3712.9	-3708.6	-3702.3	-3698.2	-3692.3	-3685.4	-3680.6	-3673.9	-3666.5	-3656.8	-3605.8	-3597.7	-3588.8	-3574.5	-3564.9	-3556.5	-3453.3	-3439	-3338.2	-3326.6	-3314.8	-3301.9	-3288.2	-3274.8	-3245.5	-3246.2	-3231.6	-3213.6	-3115	-3057	-2976.6	-2944.8	-2869	-2815.7	-2759.5	-2670.2	-2641.7	-2543.4	-2454.4	-2356.1	-2316.8	-2095.2	-1993.6	-1829.9	-1781.5	-1611.3	-1502.4	-1269.9	-1038.5	-990.35	-815.54	-715.76	-632.59	-543.69	-502.1	-451.17	-400.67	-345.37	-311.89	-231.64	-203.93	-176.74	-148.61	-125.29	-103.33	-81.001	-68.29	-63.179	-39.761	-26.354	-18.156	-8.2893	0.86444	5.6238	42.764	58.265	62.171	62.563	62.116	71.3	68.804	63.68	62.57	57.161	54.369	53.716	52.064	28.44	1.8116	-0.23606	-2.8477	-4.1271	-4.5574	-6.2291	-6.8995	-7.2194	-6.6963	16.508	18.915	21.151	24.959	15.995	-9.2357	-4.8326	-94.304	-92.439	-98.177	-102.03	-100.52	23.244	68.411	71.245	105.74	86.535	115.71	159.25	162.49	166.13	166.75	168.64	170.45	147.82	165.07	124.41	53.954	76.419	27.911	29.411	28.869	27.988	208.62	209.07	201.8	198.03	136.51	59.183	37.573	128.76	191.76	476.43	440.64	181.18	177.6	82.8	82.737	171.06	79.16	167.55	304.22	165.09	162.51	162.62	161.07	156.06	64.381	-26.787	16.915	-58.828	-51.879	25.349	25.269	101.56	161.57	38.964	39.894	-39.755	-47.811	-37.442	70.941	144.46	127.68	192.2	316.97	396.71	415.23	417.56	405.77	424.77	415.64	501.15	443.22	455.73	315.59	123.3	-44.626	54.053	54.037	-20.224	27.473	26.045	68.094	112.01	142.62	52.134	7.7919	7.9367	-6.7599	-37.427	-216.74	-206.3	-216.87	-123.69	-123.91	-122.35	-138.41	-142.59	-140.72	-149.11	-145.34	-142.13	-135.88	-130.58	-124.88	-114.58	-105.92	-106.56	-103.94	-98.787	-91.419	-84.018	-78.298	-75.068	-71.624	-71.284	-71.273	-68.079	-63.45	-54.05	-44.844	-34.378	-27.595	-24.464	-21.66	25.754	14.128	3.0565	4.4232	6.3049	10.969	15.323	17.014	18.86	22.287	26.151	31.227	33.567	34.402	47.476	42.748	39.732	41.11	45.253	43.245	34.405	31.538	31.464	29.549	26.356	20.914	13.756	14.939	11.624	12.546	6.3369	-2.0715	-10.086	-18.617	-26.664	-34.92	-44.1	-54.454	-63.15	-72.475	-81.519	-90.59	-98.206	-105.11	-113.1	-118.39	-124.66	-130.53	-143.33	-147.3	-150.87	-154.46	-157.01	-159.11	-159.98	-163.9	-168.85	-168.52	-169.07	-169.54	-168.25	-167.24	-165.19	-163.11	-161.47	-158.77	-151.75	-156.27	-171.61	-177.42	-174.63	-185.57	-194.87	-193.41	-191.89	-190.55	-190.08	-188.69	-187.43	-187.89	-185.94	-184.19	-182.6	-173.12	-157.33	-157.49	-156.77	-155.25	-155.48	-155.24
-3546.3	-3543.3	-3548.4	-3558.8	-3566.9	-3580.1	-3578.4	-3584.6	-3592.4	-3599.6	-3602.4	-3613.8	-3623.5	-3633.3	-3633.6	-3637.6	-3646.8	-3656.7	-3661.9	-3666.8	-3673.5	-3681.5	-3687.8	-3692.9	-3695.6	-3698.3	-3702.7	-3695.6	-3703.1	-3710.6	-3708.4	-3710.9	-3717.9	-3722.2	-3721.4	-3716.8	-3709.3	-3701.8	-3695.1	-3695.8	-3696.3	-3694.8	-3677.9	-3646	-3640.2	-3632.9	-3625.1	-3617.5	-3518.9	-3526.8	-3520.5	-3493.6	-3385.4	-3371.2	-3176.6	-3162	-3149.7	-3137.7	-3123.8	-3111.2	-3097	-3172.4	-3068.2	-3053.7	-3037.2	-3020.2	-2995.8	-2938.3	-2880.5	-2837.3	-2778.2	-2705.8	-2673.5	-2582.2	-2521	-2400.4	-2287.3	-2146.7	-2015.7	-1884.9	-1843.1	-1714.3	-1568.6	-1370.1	-1222.8	-1060.2	-952.4	-849.12	-744.17	-700.2	-604.46	-530.87	-488.87	-452.18	-393.07	-338.3	-286.86	-250.08	-222.05	-179.73	-143.72	-125.03	-104.86	-83.065	-66.322	-54.348	-38.699	-25.992	27.169	36.655	46.093	49.24	53.842	58.332	58.966	60.968	61.023	61.518	60.208	68.489	67.469	63.805	61.846	57.085	54.987	52.797	53.031	52.07	50.019	49.829	39.96	35.522	48.131	49.35	48.48	48.63	50.096	51.309	49.837	35.777	-3.1824	12.244	14.531	-28.967	-72.516	-84.583	-81.992	-80.493	-41.937	-19.146	95.909	68.399	88.348	105.97	77.636	96.195	112.62	143.86	146.65	146.43	117.26	143.65	75.447	52.386	51.026	50.001	231.54	229.24	273.04	219.21	215.8	103.07	29.762	26.453	139.9	177.78	200.8	194.37	189.19	185.08	180.88	-2.6955	-2.8043	174.6	171.89	172.5	171.14	266.36	195.28	227.8	114.58	119.11	120.61	-100.23	5.2845	4.9189	-60.807	-60.306	-47.241	-37.32	53.108	-8.4495	-65.608	-63.205	-36.065	10.665	89.079	334.17	337.54	155.1	154.55	409.86	360.88	372.74	350.57	407.37	304.34	296.34	148.74	148.76	147.73	149.51	148.18	145.47	37.464	-40.257	-19.076	-39.772	-8.9042	20.143	-38.337	-64.315	-128.74	-127.34	-126.99	-126.89	-185.48	-179.3	-146.2	-150.59	-156.59	-158.65	-162.06	-151.73	-136.47	-129.14	-133.01	-131.78	-128.32	-117.45	-105.29	-102.07	-100.75	-98.499	-93.465	-88.188	-82.192	-80.255	-73.454	-70.528	-69.271	-68.583	-66.423	-61.457	-53.661	-44.72	-34.18	-27.131	-25.981	22.339	40.349	13.282	-2.8036	-1.5974	0.23213	2.7672	6.5326	9.774	12.508	15.113	17.068	19.408	24.615	27.651	28.419	27.972	28.026	26.233	25.356	22.816	19.426	17.365	18.174	18.485	15.876	11.466	4.103	4.0269	1.2879	2.1008	-3.7515	-13.248	-21.383	-30.115	-38.401	-47.047	-55.324	-63.652	-74.603	-84.187	-91.768	-104.61	-115.4	-123.15	-129.9	-134.89	-141.11	-146.07	-152.78	-161.22	-164.14	-166.63	-167.74	-169.61	-165.71	-165.7	-166.29	-165.03	-164.97	-162.71	-161.62	-161.07	-163.7	-161.8	-159.17	-157	-166.05	-176.25	-174.99	-173.74	-194.44	-193.46	-192.35	-207.72	-210.64	-210.4	-212.66	-231.4	-229.98	-210.3	-201.02	-194.9	-191.31	-184.06	-178.08	-178.47	-177	-176.97	-177.26	-176.82
-3511.3	-3509.1	-3525.7	-3542.3	-3545.8	-3550	-3557.2	-3557.7	-3568.9	-3580.2	-3580.2	-3586.3	-3597.1	-3604.7	-3610.4	-3614.9	-3620.5	-3625.9	-3632.2	-3643.4	-3654.1	-3665	-3675.4	-3681.7	-3675.4	-3684.8	-3693.7	-3704	-3695.8	-3701.1	-3708.9	-3715.2	-3719.7	-3720.5	-3714.7	-3704.8	-3697.5	-3671.5	-3669.8	-3665.6	-3664.3	-3663.1	-3657.9	-3617.9	-3557.1	-3550.1	-3542.8	-3535.1	-3494.4	-3430.7	-3416	-3404.8	-3391	-3376.1	-3220.5	-3167.1	-3155	-3142.9	-3126.4	-3095	-3079.4	-3040.5	-3018.4	-2973.5	-2954.5	-2936.1	-2915.7	-2889.7	-2831.4	-2756.4	-2731.1	-2655.1	-2595.9	-2533.5	-2440.7	-2405.8	-2189.7	-1972.5	-1932.1	-1836.6	-1752	-1626.4	-1580.2	-1353.1	-1127	-1077.5	-950.83	-852.82	-789.01	-725.09	-615.37	-564.5	-523.06	-478.19	-443.38	-363.34	-328.62	-284.32	-245.39	-216.63	-180.54	-150.93	-122.85	-103.65	-84.931	-70.886	-54.842	-31.071	-31.106	-21.728	-9.7756	-3.3084	21.918	29.11	33.76	35.039	36.181	42.471	59.02	57.886	59.52	58.551	57.665	57.878	58.916	60.89	64.123	64.793	64.306	56.128	55.919	55.535	60.192	57.562	58.201	59.531	61.765	63.5	66.071	57.168	44.609	42.762	31.524	33.098	-54.295	-51.99	-80.118	-78.201	-82.343	-128.69	-47.326	-43.213	-39.064	-37.354	-34.201	-30.669	33.235	76.604	78.204	77.938	107.38	107.37	75.732	59.497	72.319	72.95	72.03	249.45	245.23	240.06	125.59	58.421	44.639	63.064	127.72	184.01	209.58	203.57	143.19	192.89	97.704	57.865	1.0173	179.48	176.83	174.98	173.06	171.55	169.33	176.27	174.5	173.12	155.78	155.85	32.026	-15.837	-23.307	-30.681	-47.739	-60.609	-60.704	-60.636	-61.202	-60.884	-46.655	-31.25	15.484	62.271	88.515	102.9	154.28	269.96	152.24	152.93	152.4	152.37	150.53	149.7	148.01	147.78	57.172	26.5	-5.4385	23.699	6.1527	-40.935	-117.28	-113.25	-129.11	-128.03	-127.76	-127.62	-144.62	-150	-147.72	-147.38	-160.9	-154.57	-166.62	-165.45	-164.6	-161.39	-156.54	-147	-135.66	-130.8	-130.34	-125.39	-114.75	-103.72	-99.617	-97.524	-94.309	-91.87	-86.732	-82.49	-80.566	-77.103	-72.654	-69.399	-67.554	-66.862	-64.376	-60.037	-53.494	-46.381	-37.348	-29.447	-26.966	-25.162	-2.3829	-1.8607	-10.718	-9.5229	-9.2579	-6.4601	-3.1418	-0.89189	1.6693	4.8761	6.9615	10.244	12.842	13.084	12.772	12.681	12.843	15.228	12.825	10	8.8812	7.9716	7.5025	8.6875	7.6605	1.6677	-5.9285	-2.1216	-9.4786	-9.0966	-16.676	-21.221	-30.737	-40.871	-50.505	-59.862	-68.708	-77.255	-85.103	-102.19	-110.21	-118.24	-129.07	-140.66	-145.67	-150.03	-155.1	-159.93	-162.54	-166.42	-168.41	-170.69	-172.56	-170.89	-172.64	-171.94	-169.75	-169.03	-168.57	-167.08	-165.08	-162.93	-161.04	-181.66	-179.82	-177.49	-176.01	-183.84	-194.77	-194.12	-198.63	-207.67	-217.69	-234.19	-230.84	-225.19	-228.67	-229.45	-227.68	-226.93	-213.72	-205.23	-201.31	-200.73	-201.43	-198.13	-194.9	-191.87	-191.35	-187.41
-3475.3	-3495.1	-3513.9	-3508.6	-3504.7	-3520.1	-3531.5	-3533.5	-3539.5	-3544.6	-3546.7	-3550.3	-3557	-3568.7	-3579.4	-3590.9	-3599.9	-3593.9	-3606.9	-3618.2	-3630.4	-3641.8	-3653.1	-3665.2	-3676.9	-3668.7	-3673.7	-3679.7	-3684.3	-3690.2	-3698.5	-3705.7	-3708.2	-3706.6	-3704	-3672.5	-3673.5	-3672.7	-3641.9	-3635.7	-3618.8	-3578.7	-3573	-3568.4	-3562.7	-3464.3	-3455	-3445.9	-3436.2	-3338.5	-3240	-3229.4	-3216.5	-3202.4	-3188.5	-3174.9	-3161.3	-3148.9	-3128.2	-3078.2	-3037.8	-2995.5	-2973.2	-2930.7	-2867.4	-2843.1	-2824.4	-2805.1	-2783.4	-2694.1	-2642.2	-2531.2	-2503.2	-2473.9	-2322.9	-2227.7	-2011.6	-1974.5	-1848.4	-1714	-1673.5	-1631.7	-1407.6	-1302.9	-1139.1	-1028.5	-943.85	-860.31	-785.8	-743.56	-638.77	-587.03	-540.44	-509.17	-466.03	-410.93	-353.68	-319.74	-278.66	-241.15	-212.08	-188.59	-157.59	-133.4	-113.63	-97.608	-82.347	-68.788	-55.121	-44.548	-33.133	-13.975	-10.579	-6.0525	-0.50545	2.6619	5.4885	8.1727	9.9197	10.055	10.107	12.146	13.2	13.047	40.433	59.018	59.002	60.048	61.462	59.931	60.601	64.097	64.273	20.753	22.47	23.554	26.179	29.149	34.094	36.998	41.358	45.271	47.953	51.7	55.186	-31.05	-49.913	-59.491	-72.687	-70.495	-56.271	-51.01	-46.979	-45.253	-42.863	-38.179	-38.089	-36.201	-33.993	-34.211	-34.734	24.187	21.765	27.226	93.39	91.583	90.64	86.093	81.539	33.019	39.794	5.9807	13.973	24.683	26.578	25.94	56.823	33.305	71.489	64.95	82.265	39.798	6.1397	2.8779	0.77289	-1.751	54.437	127.86	98.007	77.424	-74.905	4.7768	55.247	-23.137	-56.451	-38.622	-43.782	-37.344	-27.527	-45.999	-28.054	-20.142	-28.939	-55.482	-50.489	-36.546	-27.285	-4.2597	18.541	32.807	17.431	16.501	60.517	60.703	59.846	58.627	-2.9821	10.648	25.019	9.0391	-36.663	-37.754	-100.46	-112.94	-126.54	-220.44	-219.87	-143.25	-156.95	-158.84	-158.74	-162.15	-151.5	-157.98	-166.45	-166.24	-163.07	-163.83	-163.95	-161.91	-159.56	-158.1	-146.53	-138.45	-129.43	-127.91	-122.57	-111.85	-102.17	-100.75	-95.413	-91.839	-86.135	-84.364	-82.732	-81.702	-77.826	-74.783	-70.291	-68.328	-67.66	-65.36	-63.821	-60.831	-55.782	-48.805	-41.572	-36.806	-31.673	-27.651	-25.541	-24.017	-21.987	-20.222	-19.038	-17.611	-11.867	-9.9168	-7.542	-6.2702	-5.1598	-3.4325	-3.0139	-2.7364	-2.694	-0.3524	4.4134	2.5132	-1.2957	-4.044	-3.357	-1.5854	-3.4268	-0.34311	-2.1015	-8.2476	-15.778	-13.426	-17.926	-24.649	-28.363	-36.053	-44.648	-53.87	-66.442	-77.525	-85.159	-96.795	-104.92	-112.88	-124.03	-133.19	-142	-147.38	-152.06	-157.89	-164.97	-169.25	-172.2	-162.61	-171.42	-171.5	-177.17	-183.64	-182.87	-182.88	-193.04	-192.09	-189.87	-187.72	-186.46	-184.42	-181.97	-187.08	-190.22	-198.59	-198.25	-197.08	-205.3	-209.55	-214.55	-222.34	-232.71	-232.71	-239.75	-235.05	-232.98	-233.36	-226.65	-225.99	-221.01	-213.9	-212.47	-215.32	-221.79	-221.82	-213.62	-209.23	-208.49	-206.56
-3438.5	-3459	-3456.6	-3475.5	-3492.7	-3491.8	-3496.7	-3497.2	-3497.1	-3502.6	-3512	-3510.4	-3523.6	-3537.2	-3549.7	-3561.8	-3575.8	-3588.8	-3581.3	-3589.6	-3602.8	-3615.9	-3628.2	-3639.7	-3645.3	-3645.6	-3647.8	-3653.3	-3660.4	-3669.6	-3678.5	-3691.4	-3698.5	-3704.2	-3672.4	-3674.9	-3640.7	-3633.6	-3612.7	-3585	-3583.9	-3529.7	-3485.4	-3480	-3474.2	-3465.8	-3277.1	-3269	-3260.7	-3252.1	-3201.2	-3172.2	-3151.8	-3129	-3106.3	-3085.1	-3066.6	-3051.2	-3054.7	-3040.1	-3017.3	-2920.5	-2903	-2884.5	-2794.1	-2747.9	-2646.9	-2627.7	-2605.9	-2583.1	-2557.8	-2531.5	-2322.4	-2291.9	-2259.4	-2045.8	-2008.8	-1872.4	-1754.3	-1712.9	-1559.5	-1452.4	-1289.8	-1187.5	-1104.9	-1003.9	-923.41	-840.88	-802.93	-725.99	-653.89	-604.65	-557.71	-520.17	-483.2	-451.99	-391.96	-341.42	-311.63	-272.29	-241.97	-210.58	-187.51	-166.52	-145.54	-126.98	-112.43	-95.752	-81.61	-70.936	-61.356	-51.727	-44.541	-40.777	-34.065	-27.08	-24.713	-21.584	-18.026	-17.432	-16.043	-12.872	-8.1599	12.492	13.446	15.208	16.195	17.639	17.819	19.3	21.519	24.518	26.949	28.821	-10.492	-13.6	-16.394	-48.457	-43.03	-38.887	-34.389	-30.475	-23.144	-18.697	-15.541	-11.286	-52.56	-47.268	-42.494	-37.013	-44.779	-44.125	-42.225	-44.622	-42.306	-40.001	-37.915	-37.073	-36.432	-34.004	-41.119	-17.975	-33.377	-21.104	-8.2728	-11.202	-4.786	24.091	15.481	1.0965	-6.8525	-12.679	-17.129	-15.891	-18.304	-16.762	-21.627	-48.439	-54.641	-63.028	-68.51	-73.356	-78.407	-81.075	-84.801	-89.712	-92.412	-96.763	-98.58	-100.41	-64.953	-67.393	-107.69	-109.38	-77.948	-73.709	-60.639	-46.145	-47.054	-47.675	-38.025	-37.158	-48.698	-49.774	-48.184	-50.852	-50.553	-50.757	-52.35	-48.933	-64.651	-71.425	-61.194	-69.1	-76.224	-77.475	-124	-125.32	-171.26	-156.71	-187.86	-219.24	-219.54	-219.57	-219.71	-221.85	-213.39	-215.36	-183.96	-167	-166.81	-162.38	-161.34	-161.13	-161.07	-162.33	-161.29	-160.09	-159.04	-158.1	-147.36	-144.65	-143.07	-128.24	-126.15	-119.15	-109.57	-100.61	-99.814	-95.144	-90.003	-85.313	-83.422	-82.697	-81.087	-80.135	-78.385	-75.065	-68.866	-68.441	-65.393	-64.572	-63.101	-60.95	-58.249	-54.543	-50.003	-43.819	-39.961	-39.451	-37.183	-36.563	-34.626	-32.881	-28.822	-25.099	-21.608	-20.914	-19.575	-18.992	-19.297	-19.043	-19.611	-19.988	-17.333	-14.729	-15.269	-15.37	-19.367	-19.156	-15.505	-19.288	-15.504	-14.098	-12.465	-20.088	-22.208	-24.926	-33.504	-42.062	-50.48	-57.986	-66.517	-75.214	-84.06	-93.445	-103.57	-110.81	-119.71	-127.15	-134.17	-140.93	-147.61	-154.88	-158.16	-164.25	-178.72	-182.64	-184.34	-174.34	-138.47	-173.66	-195.77	-195.73	-196.58	-195.77	-199.98	-202.45	-201.08	-198.56	-196.36	-197.51	-204.47	-202.82	-200.37	-199.66	-214.88	-221.61	-225.08	-226.42	-226.57	-232.38	-234.48	-239.26	-233.88	-231.15	-230.1	-230.82	-231.19	-228.07	-225.26	-217.44	-219.19	-223.48	-228.96	-223.54	-223.56	-222.41	-222.34	-221.87
-3403.6	-3426.1	-3443.8	-3446.7	-3455.5	-3457.5	-3458.1	-3460.9	-3459.5	-3474.7	-3489.2	-3503.3	-3501.1	-3512.1	-3524	-3528.4	-3534.9	-3537.9	-3546.2	-3554.6	-3569.2	-3582.6	-3595.1	-3607	-3617.4	-3627	-3635.4	-3644.5	-3654.7	-3666	-3665.6	-3654.5	-3661.6	-3666.5	-3671.3	-3616.1	-3585.1	-3586.6	-3587.3	-3495	-3493	-3491.2	-3395.7	-3300.3	-3295.4	-3288.8	-3263.1	-3210.8	-3196.6	-3183.4	-3169.1	-3146.3	-3114.1	-3094.7	-3075.9	-3056.3	-3040.5	-3014.7	-3000.9	-2958.3	-2942.9	-2927.9	-2816.6	-2709.6	-2691.9	-2671.3	-2650.2	-2544.2	-2426.7	-2402.3	-2376	-2347.5	-2136.7	-2105.2	-2073	-1975	-1822.5	-1785.5	-1687	-1527.9	-1488.1	-1268.3	-1227.4	-1118.8	-1036.1	-958.48	-885.88	-844.36	-780	-720.96	-662.05	-617.4	-572.6	-529.29	-504.63	-466.31	-421.45	-374.09	-329.33	-301.49	-266.92	-236.53	-214.59	-194.02	-172.24	-154.42	-139.34	-124.55	-110.07	-97.872	-88.736	-89.101	-80.136	-72.896	-65.431	-57.936	-53.495	-51.728	-47.651	-43.868	-41.025	-37.684	-34.831	-33.532	-30.968	-28.305	-26.982	-26.131	-67.632	-64.909	-61.104	-58.42	-55.226	-52.476	-48.425	-44.135	-40.173	-59.659	-62.741	-69.44	-64.163	-57.236	-51.301	-45.295	-41.012	-35.734	-29.393	-34.739	-32.938	-31.679	-34.065	-30.786	-27.282	-22.941	-34.663	-37.678	-37.091	-36.616	-40.911	-39.701	-39.545	-44.391	-47.442	-49.007	-52.747	-10.622	-14.895	-7.0008	-11.985	-24.108	-14.518	-17.844	-26.698	-29.21	-34.141	-43.226	-53.023	-62.715	-69.963	-75.279	-82.551	-88.133	-93.514	-97.943	-101.3	-106.27	-110.48	-114.63	-116.26	-102.34	-95.223	-99.026	-111.92	-101.39	-90.518	-78.668	-75.409	-39.401	-40.151	-40.523	-40.885	-40.882	-42.255	-43.851	-45.624	-68.763	-81.674	-83.899	-85.092	-104.49	-101.75	-176.1	-177.99	-163.32	-209.07	-210.57	-212.31	-212.47	-213.47	-209.4	-230.8	-225.2	-215.89	-215.85	-214.99	-214.39	-212.64	-210.64	-179.53	-155.94	-162.43	-161.61	-160.78	-161.2	-160.66	-149.54	-148.21	-147.36	-146.77	-146.46	-140.04	-127.89	-127.87	-125.57	-113.98	-106.38	-102.8	-99.585	-100.55	-92.709	-84.94	-84.84	-82.259	-80.162	-79.625	-78.66	-76.73	-74.922	-72.2	-69.015	-67.556	-67.106	-66.564	-66.197	-63.737	-59.924	-55.522	-52.981	-50.81	-50.068	-48.858	-48.067	-46.971	-42.83	-35.144	-34.679	-34.554	-33.721	-32.846	-32.93	-33.403	-33.108	-31.669	-31.875	-29.353	-31.115	-32.054	-35.424	-39.129	-35.614	-33.655	-29.302	-35.604	-40.68	-24.459	-32.019	-39.068	-46.416	-54.698	-63.735	-72.128	-79.828	-88.066	-97.305	-104.68	-111.97	-120.47	-127.18	-134.34	-141.21	-147.14	-153.03	-158.35	-161.93	-165.8	-192.37	-195.24	-195.5	-197.7	-198.33	-197.9	-199.26	-202.26	-208.04	-209.14	-208.13	-207.4	-210.02	-214.51	-212.64	-209.53	-207.4	-218.6	-229.72	-228.53	-223.71	-230.95	-240.53	-239.27	-235.46	-234.55	-235.61	-240.34	-241	-239.36	-239.53	-238.95	-238.95	-238.52	-235.34	-224.52	-223.7	-225.58	-230.77	-233.11	-232.31	-232.37	-232.55	-231.44	-230.12
-3375	-3394.9	-3406.3	-3413.2	-3417.9	-3421.6	-3421.1	-3436.9	-3453.5	-3454.4	-3468.5	-3479.1	-3486.2	-3493.8	-3499.3	-3497.5	-3491.5	-3501.4	-3510.8	-3522.2	-3535	-3547.3	-3559.6	-3571.1	-3582.7	-3593.3	-3603.4	-3613.5	-3623.6	-3633.3	-3643.5	-3610.4	-3567.9	-3572.8	-3577.5	-3580.1	-3492.7	-3494.5	-3496.7	-3493.6	-3312	-3311.3	-3307.9	-3274.4	-3247.2	-3229.3	-3207.7	-3181	-3158.2	-3135.3	-3119.1	-3115.8	-3114.6	-3046.1	-3032.5	-3019.7	-3006.5	-2993.1	-2919.7	-2875.7	-2769.9	-2754	-2735.5	-2632.4	-2514.1	-2495.1	-2472.4	-2449.2	-2426.7	-2316.4	-2190.9	-2161	-2129.1	-1916.4	-1883.8	-1848.4	-1812.2	-1594.4	-1555.2	-1336.3	-1297.4	-1225	-1127.3	-1050.1	-957.83	-921.75	-863.77	-810	-760.26	-707.07	-666.66	-621.14	-581.7	-540.21	-507.13	-475.08	-442.98	-395.09	-357.36	-322.94	-289.15	-265.43	-241.47	-218.48	-192.97	-180.16	-164.66	-148.76	-133.87	-121.81	-110.75	-100.12	-102.64	-96.39	-92.632	-88.683	-84.43	-79.378	-78.207	-91.23	-87.239	-85.821	-81.39	-76.799	-74.388	-71.576	-67.618	-65.081	-69.966	-79.557	-76.166	-72.357	-67.408	-84.93	-80.82	-76.826	-72.159	-66.262	-71.556	-66.411	-65.061	-58.561	-53.082	-45.157	-33.384	-26.038	-23.111	-19.723	-24.333	-20.139	-27.522	-29.164	-30.388	-27.568	-25.396	-24.905	-26.348	-23.858	-23.519	-24.882	-26.836	-29.524	-34.248	-35.795	6.3727	0.5303	-2.0918	-8.8366	-15.18	-9.9779	-14.908	-17.442	-24.665	-33.364	-39.566	-47.847	-56.456	-60.239	-66.491	-75.849	-81.57	-88.054	-94.231	-97.701	-102.3	-99.532	-104.54	-101.4	-87.059	-85.328	-90.586	-92.148	-94.067	-86.837	-73.146	-73.989	-67.825	-32.366	-33.167	-31.182	-31.555	-34.059	-35.295	-50.442	-73.834	-75.219	-94.969	-105.34	-107.55	-131	-141.71	-200.89	-202.27	-204.27	-204.56	-205.64	-206.51	-207.6	-207.97	-207.78	-209.19	-210.07	-210.4	-196.24	-191.58	-162.53	-163.33	-162.2	-159.44	-159.32	-154.12	-147.83	-148.27	-148.32	-147.11	-146.04	-147.6	-148.44	-147.35	-138.08	-127.28	-125.7	-123.85	-114.51	-100.22	-101.49	-100.01	-102.26	-101.29	-94.451	-86.607	-84.248	-83.594	-81.986	-80.986	-80.258	-80.191	-80.813	-79.409	-78.256	-77.108	-77.236	-72.206	-69.86	-68.842	-64.325	-63.936	-62.535	-61.788	-60.516	-59.319	-58.653	-57.605	-56.053	-55.185	-54.529	-53.95	-47.988	-47.496	-46.432	-45.4	-40.152	-42.496	-43.92	-45.52	-46.834	-46.462	-48.118	-49.993	-54.032	-52.383	-53.476	-58.244	-60.498	-59.111	-66.826	-73.055	-71.448	-78.027	-87.432	-95.793	-102.52	-111.51	-121.25	-127.28	-135.82	-153.55	-159.85	-167.76	-173.1	-179.38	-184.15	-187.19	-191.22	-194.9	-200.09	-207.38	-208.4	-210.44	-216.76	-216.42	-214.16	-215.75	-223.36	-223.44	-222.01	-222.13	-219.83	-227.2	-227.62	-226.92	-235.86	-233.06	-230.87	-235.63	-238.03	-244.1	-241.67	-244.01	-241.55	-240.19	-241.89	-244.3	-245.97	-245.84	-246.07	-245.93	-243.58	-243.04	-243.6	-242.78	-234.22	-234.13	-236.24	-237.04	-236.22	-236.39	-236.96	-235	-232.54
-3349.6	-3365.8	-3375.7	-3382.3	-3381.7	-3398.2	-3416.8	-3419.3	-3432.7	-3442.5	-3450.4	-3459.3	-3464.7	-3471.2	-3477.7	-3468.7	-3472.7	-3470.8	-3479.5	-3487.4	-3494	-3503.4	-3514.9	-3529.9	-3537.6	-3500.3	-3510.6	-3519.9	-3529.7	-3539.2	-3548.1	-3557.1	-3519.3	-3478.6	-3483.8	-3489.1	-3490.7	-3442.6	-3411.2	-3315.1	-3314.6	-3269.9	-3266.5	-3248.9	-3217.9	-3186.4	-3156.3	-3138	-3140.2	-3139	-3099.4	-3083.2	-3073.7	-3060.6	-2866.6	-2854.8	-2839.8	-2826.3	-2811	-2745.9	-2691.5	-2581	-2562.9	-2541.4	-2520	-2418.6	-2380.1	-2268.8	-2243.4	-2214.9	-2184.4	-1973.2	-1940.8	-1906.7	-1756.7	-1657	-1619.2	-1400.8	-1362.7	-1323.2	-1190.5	-1117.6	-1051.9	-989.15	-928.92	-869.44	-831.18	-786.07	-735.76	-702.91	-659.96	-618.89	-583.34	-548.49	-510.41	-484.15	-449.11	-412.65	-376.5	-346.8	-316.69	-288.68	-261.97	-239.28	-210.59	-191.6	-182.63	-171.89	-157.84	-144.54	-135.1	-127.41	-120.56	-116.88	-112.56	-115.64	-109.12	-101.67	-97.498	-93.499	-87.967	-96.143	-93.431	-92.012	-93.017	-88.619	-83.35	-80.386	-75.886	-81.347	-81.159	-83.991	-78.363	-73.239	-80.851	-76.621	-75.119	-68.863	-61.945	-57.382	-49.947	-45.469	-39.084	-30.573	-20.611	-17.618	-13.065	-7.8022	-8.3059	-13.699	-23.923	-19.014	-21.312	-18.269	-16.122	-13.672	-12.49	-13.698	-11.24	0.41058	2.5887	0.81273	21.547	15.047	12.358	16.671	11.82	9.067	12.758	5.3263	0.71796	-6.7705	-12.212	-20.178	-29.839	-34.467	-41.279	-49.106	-54.695	-62.365	-72.021	-77.582	-82.557	-87.585	-91.176	-85.173	-88.329	-89.882	-87.29	-83.756	-86.428	-87.62	-79.686	-71.929	-65.646	-64.995	-61.631	-25.385	-26.429	-23.028	-22.958	-27.575	-35.264	-52.624	-67.404	-95.421	-98.48	-122.75	-130.27	-142.66	-150.56	-165.36	-177.68	-177.29	-178.77	-180.18	-179.38	-179.26	-155.82	-156.34	-157.68	-157.07	-157.28	-158.07	-156.94	-159.93	-159.17	-156.12	-151.38	-144.62	-144.1	-146.66	-148.61	-151.19	-149.74	-148.64	-146.11	-144.07	-143.38	-135.38	-125.02	-125.64	-124.72	-116.2	-99.872	-99.228	-101.05	-100.02	-95.419	-91.463	-89.937	-90.542	-95.387	-94.546	-93.105	-92.728	-86.88	-86.876	-86.554	-85.17	-85.176	-84.333	-76.957	-75.811	-75.112	-74.852	-73.757	-72.521	-71.214	-70.055	-69.976	-69.591	-68.91	-67.39	-66.151	-65.062	-58.139	-58.159	-57.899	-58.274	-56.582	-57.06	-58.641	-58.199	-58.257	-59.296	-58.657	-61.992	-66.612	-68.668	-68.974	-74.105	-79.6	-86.845	-93.536	-91.308	-95.807	-93.603	-101.24	-110.68	-118.8	-124.76	-133.8	-141.97	-149.51	-156.15	-165.53	-174.45	-179.68	-184.87	-190.09	-195.27	-198.09	-203.27	-208.14	-213.38	-217.88	-218.99	-220.21	-220.59	-224.69	-228.14	-227.43	-227.12	-236.43	-237.71	-237.52	-239.07	-245.26	-242.03	-239.84	-244.35	-244.46	-243.15	-242.23	-243.34	-243.62	-241.73	-242.09	-241.1	-242.22	-244.55	-246.54	-249.7	-247.88	-246.95	-249.07	-247.74	-247.6	-246.98	-243.26	-243.15	-243.27	-242.19	-241.3	-241	-241.19	-241.59	-242	-242.43
-3327.6	-3344.5	-3357.1	-3359.2	-3380.5	-3384.8	-3398.3	-3409	-3419.3	-3426.3	-3434.8	-3443.3	-3451.6	-3443.8	-3456.5	-3463.5	-3455.3	-3454.2	-3456	-3461	-3470.3	-3454.4	-3465.6	-3477	-3487.5	-3497.3	-3461.1	-3425.4	-3435.9	-3444.9	-3455.1	-3463	-3467.8	-3434.3	-3421.8	-3418	-3401.5	-3381.2	-3350.1	-3318.6	-3286.1	-3267.3	-3240.6	-3201.8	-3170.3	-3164.6	-3160.4	-3123.8	-3118.9	-3113.4	-3106	-2918.6	-2909.9	-2897.1	-2883.4	-2770.6	-2674.8	-2659.6	-2643	-2627.2	-2609.5	-2591	-2487	-2440.2	-2347	-2322.2	-2297.6	-2268.9	-2059.4	-2029.6	-1996	-1868.9	-1750.6	-1714.1	-1677.9	-1461.9	-1424.5	-1386.2	-1257.3	-1186.5	-1092.2	-1054.7	-999.82	-930.85	-895.11	-844.99	-804.19	-763.46	-726.8	-688.26	-652.97	-615.02	-580.19	-549.25	-514.62	-482.06	-454.61	-419.33	-389.57	-367.45	-342.06	-304.24	-283.64	-258.6	-235.11	-217.59	-202.27	-190.7	-178.36	-163.15	-152.46	-143.14	-143.63	-134.47	-127.72	-118.39	-121.79	-116.35	-110.09	-103.87	-108.09	-102.78	-97.766	-92.999	-94.782	-94.772	-90.221	-84.299	-81.696	-81.883	-76.381	-70.582	-75.507	-69.474	-66.088	-65.601	-59.548	-58.12	-45.876	-35.351	-27.772	-22.638	-18.321	-13.848	-11.994	-7.6831	0.046891	4.1738	4.2478	5.6834	-6.68	-9.1866	-8.439	-8.7109	-6.0172	4.7127	14.451	14.441	12.984	13.655	18.441	25.036	24.005	26.202	25.545	31.529	26.212	17.535	22.572	15.731	7.1694	0.65006	-7.6305	-14.016	-20.632	-27.864	-33.086	-40.558	-48.009	-52.164	-57.007	-52.913	-57.059	-61.294	-65.387	-68.041	-71.046	-73.918	-76.664	-79.253	-79.189	-72.42	-66.112	-56.535	-55.759	-51.741	-37.678	-19.688	-19.617	-16.124	-16.497	-20.251	-28.418	-41.598	-60.555	-69.934	-91.988	-116.53	-116.17	-128.32	-130.96	-142.64	-142.23	-140.1	-145.52	-145.22	-146.8	-147.73	-146.22	-144.83	-145.17	-145.66	-146.49	-149.39	-150.88	-150.67	-155.33	-150.65	-141.18	-141.26	-140.53	-141.32	-147.86	-147.67	-147.7	-144.8	-139.9	-139.56	-138.3	-137.83	-137.87	-137.46	-124.72	-128.12	-129.91	-119.09	-110.07	-98.361	-97.74	-97.207	-96.445	-96.629	-96.433	-104.55	-104.32	-94.242	-94.653	-93.976	-92.531	-91.648	-92.119	-90.771	-89.72	-88.724	-82.911	-82.563	-80.983	-80.143	-80.152	-79.694	-78.802	-78.978	-82.499	-81.505	-80.78	-81.584	-76.529	-75.641	-72.926	-73.306	-64.136	-65.62	-68.516	-69.807	-70.693	-72.044	-72.542	-76.315	-78.843	-79.776	-85.222	-88.977	-94.354	-101.09	-103.2	-110.63	-118.23	-125.51	-124.81	-131.24	-138.36	-143.32	-151.08	-158.87	-163.98	-171.67	-178.38	-182.97	-188.07	-193.2	-198.25	-202.53	-206.58	-212.69	-218.22	-221.89	-226.07	-228.8	-228.83	-229.67	-232.21	-232.08	-235.88	-240.7	-248.07	-252.77	-251.49	-249.74	-250.88	-251.62	-252.78	-254.03	-253.22	-250.36	-247.85	-246.03	-243.76	-242.88	-243.58	-242.65	-243.72	-245.17	-247.27	-250.08	-248.09	-248.02	-248.22	-247.63	-247.25	-247.87	-247.31	-249.51	-251.99	-259.93	-259.27	-259.14	-259.54	-259.95	-260	-260.07
-3314.4	-3336.7	-3341	-3362.8	-3366.8	-3378.1	-3387.7	-3397.5	-3406.4	-3413	-3425.1	-3440	-3433	-3445.8	-3430	-3426.7	-3428.4	-3428.3	-3424.4	-3432	-3443.7	-3454.5	-3424.4	-3426.4	-3396.4	-3406.6	-3415.6	-3424	-3381.5	-3378.8	-3375.7	-3376.6	-3368	-3365.3	-3361.9	-3351.6	-3324.3	-3320.8	-3320.2	-3311.3	-3264	-3227.8	-3201.3	-3184.7	-3145.1	-3143.1	-3140	-3135.9	-2953.4	-2950.2	-2942.9	-2935.8	-2853.9	-2736.6	-2723.4	-2710.1	-2620.1	-2567.8	-2480.2	-2463.7	-2444.5	-2424.3	-2403.3	-2380.9	-2259.5	-2148.5	-2121.4	-2088.9	-2055.8	-1844.2	-1809.8	-1773.9	-1559.2	-1523.4	-1486	-1449.6	-1312.1	-1193.3	-1161	-1126.7	-1054.3	-992.39	-955.36	-907.83	-867.66	-828.18	-783.29	-748.21	-710.87	-674.69	-641.67	-606.94	-570.75	-540.95	-510.09	-478.67	-449.26	-424.41	-396.99	-370.79	-338.98	-316.1	-293.69	-276.15	-257.79	-236.78	-219.08	-204.62	-191.07	-178.71	-165.12	-153.85	-144.61	-143.42	-137.57	-139.07	-129.59	-121.93	-114.66	-106.92	-102.41	-104.98	-101.37	-96.336	-90.854	-86.902	-87.008	-81.284	-75.571	-75.141	-72.666	-67.276	-63.243	-58.939	-56.555	-50.462	-48.139	-40.8	-32.962	-27.964	-23.304	-15.915	-10.479	-5.9315	-1.1585	3.1102	10.676	13.466	12.766	14.191	8.274	4.5284	8.1235	17.996	16.585	17.624	23.124	22.439	25.03	30.74	26.127	23.99	30.33	35.636	31.096	33.8	33.315	35.852	26.965	20.327	15.259	5.9027	0.51606	-5.4159	-12.02	-18.957	-25.622	-29.625	-36.21	-42.592	-46.294	-48.726	-50.751	-52.118	-53.145	-58.304	-60.852	-61.765	-55.16	-57.696	-58.811	-55.699	-52.398	-51.335	-44.396	-36.668	-26.502	-15.085	-13.489	-9.9793	-10.946	-14.264	-15.522	-26.722	-38.87	-56.889	-58.657	-86.08	-88.045	-89.102	-89.473	-112.97	-112.88	-113.69	-119.88	-125.31	-122.39	-132.46	-133.13	-134.49	-135.31	-135.51	-140.94	-143.78	-145.28	-146.43	-144.14	-143.91	-144.81	-144.5	-143.97	-144.76	-142.67	-140.85	-140.09	-141.07	-140.45	-144.19	-144.33	-144.83	-143.71	-143.31	-143.76	-143.2	-134.46	-131.12	-135.85	-120.78	-121.24	-120.61	-119.94	-119.6	-119.33	-117.19	-116.38	-117.69	-117.97	-116.85	-115.6	-103.13	-98.458	-93.515	-91.514	-90.119	-87.271	-86.423	-85.432	-85.013	-85.541	-85.467	-84.711	-83.457	-85.034	-85.398	-85.12	-82.221	-78.717	-76.628	-78.375	-82.778	-86.514	-79.517	-80.57	-78.776	-77.677	-81.337	-85.476	-88.359	-91.976	-94.329	-95.3	-98.232	-105.71	-111.75	-116.44	-121.99	-130.36	-132.32	-140.11	-148.62	-153.52	-158.48	-164.77	-170.39	-177.41	-183.19	-190.09	-192.95	-197.32	-202.84	-207.45	-211.82	-216.02	-220.46	-223.68	-228.7	-230.57	-232.74	-234.26	-234.28	-237.62	-242.83	-242.65	-249.46	-257.6	-255.66	-256.28	-254.67	-253.9	-257.69	-262.02	-259.96	-256.32	-255.19	-252.79	-249.32	-246.49	-244.98	-243.6	-244.53	-244.26	-245.16	-246.55	-248.29	-248.74	-247.3	-247.71	-248.58	-248.88	-249.03	-250.77	-255.88	-260.88	-261.99	-262.73	-262.5	-262.9	-262	-263	-261.12
-3295.3	-3322.2	-3343.8	-3345.7	-3352.9	-3364.6	-3375.5	-3387.9	-3401.1	-3415.5	-3408.2	-3424.7	-3439.1	-3407	-3400.9	-3394	-3402.5	-3411.3	-3401.1	-3391.5	-3357.6	-3367.8	-3378.4	-3388.4	-3398.8	-3360.4	-3327.4	-3330	-3314.3	-3313.8	-3311.9	-3288	-3296	-3306.7	-3308.8	-3310.1	-3283.3	-3268.6	-3267	-3250.4	-3230.5	-3208.1	-3185	-3144.2	-3158.2	-2976.8	-2975.9	-2972.7	-2970.7	-2929.2	-2920.2	-2898.1	-2823.9	-2762.4	-2700.6	-2636.5	-2544.3	-2515.8	-2498.6	-2300.3	-2279.2	-2258.1	-2235.7	-2211.9	-2184.8	-2081	-1942.6	-1909.4	-1874.2	-1748.4	-1622.8	-1585.4	-1471.9	-1332.4	-1293.3	-1254.3	-1217.8	-1165.4	-1114.9	-1079	-1024.2	-974.45	-926.18	-893.17	-853.29	-808.29	-766.56	-730.26	-694.35	-655.12	-624.27	-595.66	-564.97	-532.91	-503.39	-473.98	-446.66	-422.26	-397.12	-372.43	-352.13	-331.19	-308.55	-289.9	-271.47	-246.53	-230.93	-208.31	-201.45	-196.18	-183.36	-172.62	-161.68	-151.12	-140.67	-131.63	-133.11	-125.09	-117.81	-110.39	-103.39	-99.816	-96.707	-93.068	-87.675	-81.235	-73.838	-74.775	-71.548	-66.566	-62.309	-58.77	-54.074	-49.368	-45.649	-40.862	-36.34	-31.396	-25.645	-20.606	-15.762	-11.044	-5.2436	0.79626	5.9373	10.496	15.631	18.889	18.92	15.929	17.863	18.112	18.426	23.944	27.184	34.474	32.196	29.591	28.268	31.217	31.974	34.025	35.903	39.766	44.758	37.387	31.009	25.53	23.553	17.055	13.505	7.73	1.281	-4.0459	-9.7406	-16.484	-21.808	-26.495	-31.233	-36.866	-41.586	-44.617	-46.516	-46.474	-47.96	-50.176	-50.971	-53.158	-54.834	-51.785	-47.027	-48.118	-42.235	-35.904	-29.004	-20.623	-14.385	-9.6929	-5.9001	-4.4932	-4.4508	-5.9875	-11.461	-12.171	-14.558	-32.302	-52.452	-54.262	-70.38	-73.164	-80.255	-84.7	-85.363	-86.477	-87.248	-88.583	-90.064	-112.93	-113.7	-114.59	-116.93	-131.25	-130.65	-131.82	-133.27	-137.93	-140.14	-141.35	-141.12	-141.37	-140.88	-141.04	-140.33	-140.69	-143.02	-142.82	-141.68	-141.9	-143.12	-144.91	-144.23	-144.74	-146.51	-143.07	-141.66	-138.77	-134.51	-133.82	-134.31	-133.86	-133.99	-127.49	-122.51	-119.34	-119.79	-120.95	-120.55	-118.75	-116.51	-110.28	-98.303	-92.754	-90.285	-88.971	-89.314	-88.888	-88.015	-87.553	-87.214	-85.725	-84.997	-84.14	-84.65	-88.362	-87.351	-86.908	-85.898	-87.395	-87.438	-86.641	-89.766	-91.396	-93.699	-91.699	-84.782	-86.332	-91.407	-94.6	-100.12	-105.01	-106.11	-108.3	-111.63	-117.22	-123.77	-130.08	-134.85	-141.6	-150.47	-156.49	-161.23	-169.2	-175.89	-180.72	-185.72	-193.16	-194.6	-199.53	-206.81	-210.83	-214.17	-218.52	-222.75	-225.21	-229.51	-233.44	-236.26	-237.67	-238.35	-238.35	-241.28	-244.91	-247.79	-251.75	-258.26	-257.18	-255.77	-257.09	-254.98	-258.99	-263.69	-262.12	-258.52	-254.41	-252.37	-249.34	-247.87	-245.58	-243.76	-243.45	-243.47	-243.42	-245.1	-245.04	-245.16	-247.03	-247.76	-247.76	-249.32	-250.36	-251.22	-256	-259.2	-260.46	-260.34	-259.93	-260	-260	-260.07	-261.47
-3271.9	-3292.5	-3304.7	-3320.7	-3336.2	-3355.8	-3365.8	-3368	-3384.6	-3401.2	-3416.5	-3386.9	-3355.7	-3369.6	-3383.6	-3382.5	-3384.7	-3384.7	-3377.1	-3352.4	-3362.5	-3346.6	-3347.5	-3345.9	-3312.5	-3320.9	-3329.7	-3248.1	-3261.8	-3273.8	-3277.1	-3285.6	-3259	-3261.5	-3261.5	-3252.6	-3236.8	-3220.7	-3212.7	-3195.8	-3159.9	-3162.6	-3169.3	-3087.5	-3040.9	-2989.6	-2991.8	-2954.2	-2944.6	-2934.9	-2916.2	-2887.3	-2830.5	-2778	-2730.1	-2652.1	-2560.1	-2503.6	-2335.7	-2314.7	-2293.1	-2270.2	-2244.6	-2218	-2141.6	-2043.7	-1940	-1825.6	-1687.7	-1649.6	-1569.6	-1478.1	-1362.7	-1314.9	-1253.3	-1209.7	-1172	-1141.1	-1104.9	-1057.2	-1004.5	-956.69	-915.53	-874.55	-833.16	-793	-755.24	-715.71	-672.55	-639.57	-606.82	-585.26	-556.09	-524.02	-497.01	-481.38	-454.04	-428.46	-406.13	-382.36	-359.67	-341.14	-319.07	-291.05	-273.27	-254.21	-233.16	-221.26	-208.98	-198.59	-190.09	-184.2	-175.01	-164.62	-152.15	-142.55	-133.6	-124.33	-116.34	-108.85	-100.9	-93.646	-86.225	-78.269	-80.379	-74.304	-68.779	-67.801	-61.79	-56.368	-50.755	-46.695	-42.5	-38.472	-33.777	-30.068	-25.853	-20.927	-15.235	-11.594	-8.342	-2.3913	1.9448	8.1194	11.714	15.017	18.956	19.761	20.203	20.404	21.638	21.827	23.845	24.743	30.625	32.013	33.135	32.41	32.355	34.964	38.36	39.439	41.512	37.434	30.816	31.288	27.023	22.245	16.994	11.499	8.7359	4.3639	-0.98071	-7.0637	-11.994	-16.751	-21.163	-25.72	-29.376	-33.906	-38.557	-41.447	-43.878	-42.68	-42.664	-44.09	-45.232	-44.532	-44.995	-44.181	-44.752	-36.041	-28.095	-20.749	-14.998	-9.0233	-7.0029	-2.8627	-1.1979	0.56444	1.334	-0.26456	-2.429	-3.6169	-10.152	-11.47	-26.131	-49.558	-51.077	-58.696	-65.622	-66.441	-68.336	-70.748	-72.941	-75.695	-86.134	-85.886	-85.64	-88.338	-89.712	-112.29	-112.32	-114.51	-114.84	-129.21	-129.85	-130.49	-132.95	-136.23	-139.34	-138.98	-139.46	-139.77	-139.82	-140.14	-140.49	-141.49	-144.03	-143.31	-142.95	-143.47	-142.17	-142.07	-142.09	-139.06	-135	-134.19	-134.61	-133.22	-133.86	-129.87	-120.25	-117.91	-117.66	-118.37	-117	-115.06	-113.34	-103.44	-97.092	-91.744	-90.559	-89.346	-88.884	-87.251	-86.186	-85.589	-86.46	-86.193	-84.506	-84.317	-85.881	-86.149	-85.015	-85.018	-84.537	-83.536	-85.295	-88.477	-90.344	-91.467	-94.935	-96.389	-84.277	-86.383	-91.971	-98.328	-104.94	-107.45	-112.46	-113.61	-115.41	-120.48	-126.94	-131.72	-139.31	-146.32	-153.02	-162.37	-167.57	-172.82	-179.96	-185.2	-191.02	-197.08	-204.15	-207.13	-210.2	-215.21	-220.14	-223.43	-227.82	-230.34	-234.77	-236.65	-238.47	-240.03	-241.26	-241.41	-243.98	-246.98	-247.31	-250.14	-252.29	-254.78	-257.47	-255.55	-253.32	-250.89	-254.61	-255.26	-251.84	-250.06	-249.29	-247.52	-246.59	-243.97	-242.6	-241.98	-240.25	-240.91	-242.88	-242.95	-242.19	-242.61	-245.08	-247.82	-246.65	-248.14	-248.89	-252.84	-255.95	-258.28	-259.26	-259.74	-260.23	-260.02	-261.42	-262.12
-3241.8	-3248	-3271.2	-3294.9	-3315.1	-3334.1	-3348.5	-3346.8	-3346.5	-3317.6	-3333.3	-3348.2	-3363.3	-3354.9	-3363.4	-3368.4	-3368.5	-3365.9	-3348.2	-3358.7	-3349.1	-3338.4	-3330	-3305.9	-3315.2	-3294.7	-3274.6	-3251.8	-3239.9	-3243.7	-3244.8	-3244.5	-3240.1	-3231.1	-3216.8	-3203.5	-3194.8	-3153.2	-3154.8	-3157.3	-3095.9	-3069.1	-2995.4	-2998.7	-2999.5	-2999.1	-2966	-2947.6	-2932.4	-2921.3	-2904.7	-2875.2	-2834.1	-2788.8	-2770.1	-2674.9	-2609	-2552.4	-2527.4	-2507.4	-2485.2	-2331.2	-2265.6	-2221.1	-2188.7	-1973.6	-1936.3	-1719	-1680.2	-1589.2	-1535.6	-1453.7	-1362.7	-1296.1	-1260.9	-1192.7	-1151.9	-1112.2	-1072.2	-1028.1	-980.6	-935.08	-891.08	-852.27	-814.56	-776.8	-739.52	-705.48	-670.68	-637	-606.63	-574.94	-543.41	-514.85	-486.8	-460.86	-442.29	-416.22	-393.58	-372.04	-348.52	-328.2	-307.4	-282.99	-264.06	-249.73	-234.31	-218.97	-207.15	-195.15	-180.79	-175.46	-166.93	-156.51	-147.23	-137.42	-128.94	-120.62	-111.48	-110.31	-102.96	-94.091	-86.569	-80.037	-71.966	-63.247	-58.433	-54.897	-48.631	-43.761	-37.716	-32.799	-27.855	-25.554	-22.021	-17.024	-13.134	-8.8497	-4.8316	-1.4324	0.43859	4.7068	8.9902	13.332	16.03	18.153	19.1	19.938	18.416	21.233	23.296	21.309	22.07	26.922	23.957	25.685	28.047	30.04	31.712	35.365	39.507	35.9	29.167	29.207	25.885	21.696	19.127	17.639	12.466	6.0503	1.0977	-2.8431	-6.7327	-11.053	-14.614	-18.653	-22.176	-22.809	-26.334	-30.732	-33.265	-35.339	-38.427	-39.598	-41.868	-43.501	-44.734	-41.251	-39.884	-38.569	-33.391	-25.909	-16.955	-8.6363	-7.1972	-6.9603	-1.8947	-0.41521	2.0363	4.6309	5.8055	4.8674	3.7846	-0.052746	-1.2893	-7.3679	-8.5884	-10.908	-30.12	-46.632	-48.06	-48.603	-57.832	-59.677	-63.208	-67.888	-70.434	-71.229	-71.759	-73.12	-84.942	-85.567	-86.303	-87.754	-110.15	-112.25	-112.83	-114.27	-119.84	-129.14	-129.29	-128.94	-128.92	-129.63	-130.5	-131.99	-132.38	-139.14	-139.69	-139.85	-139.62	-141.76	-141.96	-141.83	-142.38	-139.16	-133.73	-134.21	-133.98	-132.78	-130.5	-124.38	-119.49	-117.21	-116.77	-116.84	-116.43	-112.78	-103.45	-93.875	-92.115	-91.333	-91.395	-89.72	-89.019	-85.343	-84.238	-84.906	-84.904	-82.523	-82.264	-81.924	-81.076	-81.103	-79.998	-79.366	-80.009	-41.943	3.8106	1.8946	0.65039	-1.6553	-6.1613	-73.534	-84.215	-87.891	-93.157	-97.386	-103.79	-110	-113.61	-114.73	-114.87	-121.96	-125.89	-131.72	-140.84	-146.91	-154.14	-160.95	-168.9	-174.02	-178.89	-185.27	-192.77	-197.71	-204.6	-207.8	-212.97	-217.09	-220.89	-226.3	-230.28	-232.38	-234.95	-238.22	-239.79	-240.53	-241.65	-243.18	-244.94	-246.52	-247.41	-246.9	-244.78	-247.95	-249.66	-249.79	-248.41	-248.68	-249.54	-247.51	-245.21	-242.64	-242.86	-242.04	-241.37	-241.43	-239.82	-238.86	-239.59	-240.51	-239.01	-240.42	-239.87	-240.01	-240.38	-242.8	-244.9	-246.51	-245.93	-246.75	-248.96	-251.46	-254.18	-255.67	-257.16	-259.02	-262.16	-262.65
-3220.1	-3248.3	-3251.3	-3269.3	-3285.6	-3303.2	-3311.8	-3321.5	-3307.6	-3323.4	-3312.1	-3324.6	-3331.2	-3335.2	-3340.4	-3349.8	-3357.2	-3341.8	-3352.3	-3362	-3330.5	-3317.6	-3300.8	-3308.7	-3285.2	-3272.3	-3245.9	-3254.7	-3236.6	-3231.4	-3219.5	-3210.2	-3199.2	-3185.5	-3176.1	-3140.6	-3146.9	-3151.6	-3081.7	-3044	-2989	-2995.1	-2999.7	-3004.4	-2976	-2964.6	-2948.3	-2931.9	-2916.6	-2904.3	-2889	-2860.9	-2805.8	-2796.2	-2751	-2683.2	-2631.7	-2585.8	-2550.2	-2529.2	-2490.1	-2397	-2293	-2217.5	-2092.8	-1967.5	-1851.7	-1710.7	-1671	-1582.4	-1516.1	-1441.5	-1372.3	-1303.5	-1239.8	-1199.1	-1133.2	-1088.2	-1046.5	-1005.7	-961.2	-916.54	-875.07	-834.95	-797.57	-759.52	-723.55	-689.63	-655.36	-621.98	-590.63	-559.53	-529.04	-500.77	-474.24	-448.38	-422.57	-400.24	-376.72	-354.37	-332.11	-308.69	-289.3	-271.59	-254.75	-240	-224.84	-208.85	-195.24	-182.68	-170.25	-160.45	-150.05	-141.78	-136.11	-127.05	-118.01	-108.14	-98.828	-92.287	-86.006	-77.808	-69.797	-62.629	-56.908	-50.011	-43.252	-37.941	-32.995	-27.936	-23.191	-19.47	-15.395	-12.063	-8.1064	-4.6883	-1.2458	1.9676	4.7874	6.9119	9.8083	11.286	15.176	17.668	19.131	19.004	20.861	18.827	20.554	22.882	22.417	20.354	18.93	19.77	15.932	22.262	24.153	26.547	26.248	30.568	29.911	23.153	23.02	18.89	14.924	15.567	12.546	6.3441	5.8514	-0.96478	-8.0176	-11.878	-14.72	-17.249	-18.028	-22.371	-24.865	-28.328	-31.85	-32.964	-34.988	-38.609	-38.451	-38.95	-40.628	-41.628	-40.357	-39.18	-37.197	-33.056	-27.502	-17.049	-8.7678	-7.4886	-4.0717	-3.8184	-2.254	0.32964	4.2047	7.0622	7.8272	8.6139	7.8293	5.1076	1.8705	1.5224	-0.40736	-7.7786	-7.4811	-22.079	-30.828	-46.109	-45.852	-45.613	-47.996	-58.656	-63.235	-64.397	-66.053	-65.671	-65.877	-66.995	-71.436	-84.117	-84.26	-86.033	-87.114	-100.55	-112.04	-112.87	-111.9	-111.68	-113.16	-121.63	-123.72	-123.97	-126.73	-129.87	-130.47	-131.51	-133.91	-138.96	-139.74	-140.48	-140.46	-140.36	-133.59	-133.62	-131.92	-130.3	-125.14	-119.9	-118.95	-117.22	-117.22	-113.57	-105.28	-98.086	-93.249	-93.131	-91.362	-92.03	-89.358	-85.745	-84.96	-84.289	-84.05	-83.378	-83.463	-82.258	-81.863	-78.553	-75.018	-72.022	-71.461	-70.175	-56.41	4.8573	10.528	2.0868	1.4922	-31.698	-49.464	-63.926	-81.762	-86.319	-90.506	-96.2	-100.04	-105.38	-109.25	-110.4	-111.32	-116.23	-123.72	-129.55	-134.89	-143.42	-150.74	-155.31	-163.09	-170	-176.99	-182.12	-187.72	-194.65	-200.43	-204.43	-209.64	-214.72	-219.94	-223.54	-227.68	-231.72	-234.48	-236.99	-237.93	-240.36	-241.6	-242.4	-244.66	-246.2	-245.37	-244.42	-246.09	-244.87	-242.54	-240.5	-242.73	-244.68	-244.76	-244.24	-240.92	-240.5	-240.88	-239.36	-237.13	-238.14	-238.09	-237.38	-237.68	-238.09	-240.58	-239.28	-238.74	-236.02	-237.06	-237.12	-239.52	-241.06	-241.76	-243.25	-246.27	-245.6	-249.13	-251.13	-252.45	-255.51	-259.67	-263.56
-3195.6	-3214.2	-3229.9	-3243.9	-3257.3	-3254	-3272	-3288.9	-3306.4	-3290.2	-3291.5	-3299.1	-3308.6	-3296.9	-3308	-3319.3	-3331.2	-3343.5	-3319.7	-3310.7	-3283.4	-3293.2	-3300	-3275.4	-3263.5	-3237.4	-3246	-3223.4	-3213.8	-3200.1	-3183.3	-3165.5	-3153.5	-3124	-3129.2	-3131.8	-3086.3	-3042.6	-2974.7	-2981.6	-2988	-2961.7	-2965.7	-2963.5	-2953	-2938.6	-2924	-2909.6	-2892.6	-2876.2	-2864.3	-2844.9	-2805.6	-2795.5	-2718.2	-2656.8	-2614.6	-2582.9	-2531	-2509.3	-2462	-2370.6	-2245.8	-2210.9	-1995.3	-1956.8	-1843.6	-1737.5	-1656.6	-1576.2	-1508.1	-1435.4	-1366.2	-1296.7	-1233.1	-1176.3	-1120.4	-1074	-1039.2	-985.51	-936.32	-898.22	-856.15	-817.06	-777.61	-740.9	-704.06	-668.55	-635.42	-602.12	-568.79	-539	-509.34	-480.72	-455.68	-429.44	-403.93	-379.68	-356.75	-335.92	-316.43	-293.16	-273	-255.72	-238.28	-221.54	-206.11	-191.38	-177.65	-166.95	-154.4	-142.79	-135.9	-125.94	-115.74	-109.25	-100.7	-90.744	-81.216	-73.054	-64.552	-56.175	-49.363	-43.819	-38.102	-31.645	-27.62	-22.992	-18.323	-13.879	-9.5183	-5.2781	-1.7974	1.3013	3.4773	6.5753	9.805	10.908	13.433	15.487	15.822	17.159	19.498	20.777	22.168	22.184	19.881	21.385	22.096	22.028	21.865	19.693	14.668	12.59	17.071	25.969	21.398	19.378	21.539	20.867	19.503	16.474	12.525	9.0164	6.5637	5.4087	5.1058	-2.275	-5.052	-9.0194	-14.278	-18.002	-19.54	-21.252	-23.821	-26.269	-28.888	-32.43	-36.695	-37.857	-38.854	-40.435	-40.535	-39.837	-40.213	-39.955	-38.258	-36.013	-34.826	-31.784	-24.939	-13.364	-7.7001	-4.7728	-6.2486	-5.6503	-4.3383	0.1374	4.8049	7.4594	7.8075	8.8955	8.5947	6.0263	5.4993	3.3523	0.96223	0.68831	-6.1898	-6.9788	-7.9606	-20.568	-25.517	-28.204	-34.368	-42.657	-44.242	-45.151	-45.441	-46.888	-54.233	-59.718	-64.252	-65.753	-67.458	-69.775	-83.523	-85.305	-85.843	-86.583	-98.443	-101.51	-111.67	-113.13	-113.59	-114.74	-114.43	-121.93	-123.67	-124.72	-130.02	-130.26	-131.91	-138.59	-139.57	-139.51	-140.24	-132.4	-131.8	-132.56	-125.52	-118.57	-116.4	-117.65	-118.46	-113.57	-99.216	-94.598	-93.615	-93.023	-90.699	-91.271	-88.443	-85.554	-84.631	-84.881	-84.37	-82.672	-82.925	-82.967	-78.748	-71.764	-67.403	-66.616	-65.176	-63.332	-63.577	-64.947	-66.244	-66.113	-68.014	-70.533	-71.386	-75.804	-79.606	-83.008	-87.309	-91.621	-95.782	-98.448	-101.03	-102.04	-104.07	-109.05	-114.96	-120.99	-127.84	-134.14	-140.87	-148.04	-155.25	-161.17	-166.89	-173.99	-179.87	-185.87	-192.9	-199.09	-203.23	-207.91	-211.87	-218.26	-221.46	-224.71	-230.76	-235.15	-235.99	-238.23	-240.29	-241.81	-241.89	-241.72	-244.22	-243.47	-242.13	-241.59	-240.21	-240.94	-240.17	-239.55	-241.28	-240.8	-239.91	-240.64	-239.31	-238.57	-239.06	-237.49	-234.82	-236.36	-236.72	-236.99	-237.6	-238.24	-237.78	-235.98	-236.85	-234.89	-233.23	-236.82	-238.72	-240.19	-242.57	-245.29	-245.8	-247.28	-248.66	-251.29	-253.95	-258.85
-3161.4	-3179.3	-3201.8	-3200.5	-3224.4	-3246	-3235.2	-3244.4	-3254.3	-3259.2	-3251.9	-3263.4	-3278.5	-3290.6	-3273.8	-3277.2	-3285.2	-3285.3	-3264.6	-3274.1	-3281.7	-3262.2	-3255.6	-3242.6	-3226.3	-3231.8	-3207	-3191.8	-3178.3	-3161.8	-3139	-3104.6	-3108.7	-3112	-3078	-3047.4	-3014.6	-2961.8	-2967.9	-2945.8	-2947.4	-2944.9	-2938.6	-2931.3	-2920.4	-2906.7	-2892.1	-2876.7	-2862.4	-2842.5	-2814.4	-2804.8	-2791.4	-2726.6	-2671.8	-2624.4	-2594.2	-2573.7	-2520.4	-2480.6	-2398	-2327.1	-2228.8	-2122.2	-1978.9	-1940.3	-1843.9	-1740	-1641.1	-1595.8	-1525.1	-1452.1	-1372.3	-1296	-1223.5	-1154.3	-1107.8	-1063.4	-1010.1	-968.59	-927.25	-877.07	-836.97	-797.08	-758.86	-717.91	-680.9	-646.33	-612.61	-578.03	-545	-514.82	-486.82	-458.29	-431.8	-406.29	-380.26	-355.72	-335.27	-315.26	-291.13	-272.06	-255.05	-237.09	-220.77	-206.36	-187.29	-172.07	-163.12	-149.88	-136.45	-126.07	-115.04	-106.76	-97.18	-87.687	-79.228	-71.004	-62.556	-54.566	-47.528	-39.308	-32.823	-28.598	-21.788	-16.501	-13.027	-7.4559	-3.1378	-1.4688	1.5189	6.2029	8.9659	9.6104	12.523	15.271	16.441	17.688	19.926	19.715	21.228	22.449	23.947	24.617	23.764	23.376	21.513	20.882	21.39	22.142	20.114	18.388	13.874	10.972	15.271	20.115	14.795	13.414	14.404	14.646	12.491	8.4963	7.7097	1.8534	-1.4971	-2.2108	-5.6462	-6.4473	-10.631	-15.421	-14.719	-20.793	-24.12	-23.816	-26.167	-29.856	-30.202	-33.328	-35.202	-35.901	-38.048	-37.325	-39.111	-39.7	-38.057	-37.374	-37.954	-36.263	-34.146	-30.733	-25.443	-17.055	-8.8417	-7.1852	-2.1219	-3.9153	-2.1072	-0.3225	2.4665	3.4005	4.5668	5.8407	6.6831	5.5207	5.0635	4.8675	2.4997	1.6858	-0.67878	-1.5195	-4.1756	-8.2104	-9.2236	-10.451	-16.97	-21.196	-25.033	-26.246	-27.172	-32.835	-42.681	-44.959	-47.608	-50.439	-50.73	-53.035	-54.543	-64.878	-70.321	-83.253	-84.693	-85.014	-96.251	-101.4	-102.35	-103.28	-112	-112.52	-112.86	-114.06	-114.95	-121.23	-125.93	-130.06	-134.01	-139.26	-139.26	-139.06	-133.93	-132.87	-132.51	-119.68	-119.24	-119.33	-122.21	-117.64	-104.61	-94.603	-93.607	-93.135	-93.196	-92.938	-91.565	-88.473	-88.303	-87.154	-85.019	-86.269	-84.564	-84.784	-83.995	-67.008	-67.018	-67.284	-66.123	-64.988	-64.716	-63.624	-62.564	-61.574	-64.632	-67.886	-71.101	-73.52	-76.789	-80.408	-82.282	-86.754	-88.38	-89.125	-88.945	-90.033	-93.926	-97.943	-103.84	-111.07	-116	-123.16	-129.8	-136.25	-142.32	-148.41	-155.17	-162.89	-168.65	-176.63	-182.69	-187.75	-194.68	-200.07	-205.28	-209.87	-215.03	-220.74	-224.29	-227.48	-230.46	-233	-234.49	-236.08	-237.9	-239.9	-239.8	-240.65	-240.31	-239.31	-239.44	-238.52	-238.72	-237.8	-237.53	-238.16	-239.07	-238.41	-238.36	-237.86	-237.47	-237.07	-237.44	-236.24	-236.07	-236.58	-237.38	-237.81	-237.84	-236.54	-236.8	-234.32	-236.31	-235.36	-236.51	-238.16	-239.84	-241.93	-244.61	-245.4	-247.83	-247.04	-249.37	-254.36
-3106.7	-3134.8	-3160.4	-3186.3	-3174.9	-3183.5	-3191.5	-3191.2	-3207.8	-3223	-3221	-3226.9	-3237.9	-3240.3	-3236.4	-3228.8	-3237.3	-3245.6	-3238.4	-3234.2	-3232.6	-3227.2	-3205.8	-3211.9	-3195.9	-3181.9	-3168.1	-3153.1	-3138.5	-3121.4	-3086	-3092.2	-3061.3	-3041	-3013.2	-2982	-2944.2	-2949.6	-2925.3	-2922.7	-2916.3	-2910.4	-2903.1	-2894.2	-2881.5	-2865.2	-2852.5	-2844.5	-2806.6	-2798.8	-2762.1	-2738.1	-2697.8	-2657.5	-2621.8	-2554.5	-2537.6	-2518.8	-2500	-2383.9	-2320	-2238	-2199.9	-2075.5	-1989.6	-1913.4	-1820.1	-1719.1	-1641.8	-1569.8	-1526.6	-1477.9	-1391.8	-1301.1	-1223.1	-1154	-1093.1	-1033.1	-989.79	-941.67	-899.82	-856.22	-815.57	-777.01	-730.51	-690.83	-654.95	-620.94	-586.2	-551.34	-518.58	-490.62	-462.01	-434.64	-409.14	-381.79	-354.89	-332.47	-312.29	-291.65	-270.4	-251.71	-236.21	-219.28	-201.82	-183.6	-168.78	-154.66	-141.39	-132.5	-121.08	-108.74	-97.801	-87.915	-79.307	-69.784	-60.631	-52.68	-45.205	-37.812	-30.095	-24.261	-18.148	-12.028	-9.0263	-3.5304	0.67506	4.5459	7.778	12.117	11.162	12.369	14.286	14.946	17.486	19.419	21.274	23.015	24.108	24.596	25.552	26.43	27.995	26.817	26.908	23.723	20.658	20.139	22.509	23.69	20.877	16.905	12.562	11.328	12.744	14.508	14.429	11.806	9.3725	9.826	8.4617	4.8699	2.7764	-1.4137	-8.4831	-9.1748	-9.401	-12.407	-12.777	-12.835	-16.846	-20.465	-24.984	-26.697	-25.264	-26.783	-30.708	-31.093	-31.111	-33.602	-35.687	-36.663	-35.697	-36.718	-35.534	-34.791	-36.008	-36.615	-35.032	-32.009	-28.532	-23.05	-13.938	-5.7063	-6.0151	-7.8267	-6.5574	-3.1561	-4.6089	2.612	4.0289	3.1784	4.3541	3.7567	3.3251	2.5113	2.2787	2.382	1.2703	-0.77664	-0.95525	-0.40075	-2.7777	-4.2524	-9.1244	-11.185	-11.361	-10.842	-7.8987	-12.66	-19.964	-26.247	-31.863	-35.749	-39.667	-38.824	-42.673	-50.136	-53.313	-54.709	-54.92	-70.21	-84.736	-86.2	-86.495	-96.183	-100.37	-100.71	-101.07	-101.95	-106.55	-112.18	-113.83	-115.57	-129.42	-130.98	-131.67	-131.38	-131.66	-132.26	-132.68	-131.83	-119.37	-119.37	-126.22	-121.64	-113.03	-101.72	-94.476	-94.737	-93.759	-93.148	-92.376	-88.576	-89.015	-92.032	-90.756	-90.874	-90.049	-89.962	-84.711	-83.442	-82.863	-68.118	-66.635	-66.854	-59.111	-57.318	-55.621	-53.393	-56.143	-60.87	-64.35	-68.845	-72.852	-76.159	-78.908	-80.418	-79.918	-78.547	-76.636	-80.633	-84.943	-88.804	-93.099	-99.015	-104.2	-109.18	-113.99	-120.04	-127.2	-134.92	-142.45	-149.39	-156.56	-163.24	-169.39	-176.12	-181.62	-187.79	-194.21	-200	-205.08	-209.81	-215.14	-216.41	-219.73	-223.03	-226.92	-228.4	-231.26	-233.51	-236.38	-236.63	-236.63	-237.42	-238.58	-237.41	-237.69	-237.62	-238.34	-236.96	-237.85	-237.91	-238.38	-238.11	-236.9	-236.95	-236.07	-236.81	-236.85	-237.11	-238.46	-238.41	-239.51	-238.65	-238.73	-237.33	-236.14	-235.9	-236.45	-235.7	-238.03	-241.05	-243.25	-245.23	-245.31	-247.72	-247.96	-249.05
-3081	-3082.9	-3101.2	-3110.2	-3103.3	-3131.1	-3150.6	-3155	-3165.2	-3174.2	-3179.1	-3184.1	-3193.5	-3192.9	-3202.6	-3199.3	-3202.7	-3205.7	-3205.7	-3201.1	-3182.8	-3189.4	-3195.8	-3170.1	-3154	-3141.2	-3126.2	-3108.8	-3090.8	-3072.5	-3074.9	-3036	-3003.5	-2975.7	-2952.2	-2926.5	-2931.8	-2904	-2895.1	-2887.2	-2880.6	-2873.6	-2864.2	-2848.9	-2835.6	-2823.6	-2788.6	-2787.7	-2778	-2716.4	-2672.8	-2640.3	-2603.4	-2551.2	-2541.6	-2526.2	-2415.6	-2304.8	-2285.1	-2260.2	-2228.8	-2196.7	-2101.4	-2020	-1955	-1876.1	-1787.3	-1682.6	-1614.5	-1559.3	-1514	-1453	-1409.3	-1317.8	-1228.4	-1147.2	-1077.4	-1017.5	-958.42	-915.77	-874.74	-829.11	-788.19	-745.56	-707.22	-670.25	-631.87	-597.02	-562.35	-526.59	-494.71	-465.7	-438.06	-411.97	-383.86	-358.68	-334.6	-312.51	-291.06	-270.4	-251.25	-232.3	-215.14	-199.98	-182.76	-167.31	-153.56	-142.47	-128.36	-116.44	-104.36	-91.791	-80.88	-71.856	-61.696	-52.138	-44.348	-36.688	-29.603	-22.232	-17.51	-12.234	-5.9861	-0.7388	3.7693	5.25	9.1632	11.868	9.7409	13.134	15.381	17.42	19.114	20.141	19.906	21.871	24.682	27.777	27.788	29.617	29.262	28.438	28.148	29.309	25.628	24.872	22.18	19.968	20.157	26.584	22.23	20.086	16.183	13.166	12.637	11.697	10.479	12.023	6.9481	5.8777	5.2235	2.8134	-1.0603	-3.1848	-1.7145	-7.9494	-10.868	-13.731	-12.788	-14.898	-17.45	-20.233	-21.488	-24.031	-23.653	-24.747	-28.422	-31.158	-31.771	-34.446	-36.385	-31.891	-31.479	-30.423	-33.985	-34.725	-33.931	-35.272	-35.951	-35.659	-28.406	-28.337	-23.303	-19.544	-18.569	-20.272	-18.808	-17.272	-3.2065	-3.5826	-5.0618	-4.8713	-5.6067	-5.2702	-4.7457	-5.4508	-5.186	-5.0404	-7.1568	-7.5062	-8.9337	-9.5529	-11.081	-9.5696	-5.7931	-6.3809	-6.7223	-4.8629	-10.504	-10.906	-10.851	-13.266	-18.874	-18.33	-17.676	-19.38	-23.283	-27.693	-32.753	-36.24	-43.75	-53.581	-55.012	-56.417	-71.228	-85.503	-84.222	-86.003	-87.244	-87.787	-94.897	-100.43	-103.24	-113.49	-115.08	-116.25	-116.96	-124.79	-126.29	-127.01	-131.53	-141.79	-141.63	-141.96	-134.85	-120.3	-119.46	-116.93	-96.392	-95.1	-100.93	-94.597	-94.547	-93.897	-93.797	-93.056	-103.44	-102.39	-97.315	-90.955	-90.109	-89.447	-84.672	-82.819	-82.942	-66.548	-66.842	-65.819	-64.542	-58.583	-58.618	-61.249	-64.178	-67.078	-70.776	-72.568	-74.044	-74.884	-70.59	-65.048	-68.71	-70.891	-74.31	-77.601	-82.894	-88.064	-91.27	-96.495	-101.36	-106.25	-113.85	-120.92	-127.54	-135.18	-141.87	-147.62	-154.45	-160.7	-167.73	-172.43	-176.55	-182.48	-188.33	-193.07	-199.15	-203.32	-205.36	-209.32	-214.48	-218.89	-223.35	-225.77	-229.37	-231.61	-234.52	-234.79	-235.96	-236.61	-236.6	-237.7	-238.63	-237.55	-237.5	-237.73	-238.79	-238.23	-238.65	-237.24	-236.45	-237.56	-237.68	-239.89	-240.47	-241.29	-241.43	-242.86	-242.02	-241.55	-239.85	-239.28	-238.99	-238.2	-239.42	-242.5	-244.63	-244.29	-245.93	-246.72	-247.14	-250.33
-3006.9	-3021.7	-3028.6	-3054.2	-3080.5	-3087.8	-3104.1	-3115	-3123.8	-3131.6	-3128.6	-3145.9	-3162.5	-3164.6	-3167	-3170.1	-3172.9	-3173.1	-3170.6	-3165.5	-3174.2	-3157.8	-3146.6	-3133.1	-3118.9	-3105.2	-3084.2	-3055.4	-3058.7	-3041.9	-3016.8	-2986.4	-2949.7	-2910.4	-2911.4	-2914.9	-2886.8	-2871.1	-2859.7	-2852.1	-2845.4	-2838.1	-2826.2	-2810.2	-2774.4	-2771.8	-2764.1	-2710.4	-2670.1	-2629.1	-2569.8	-2556.4	-2538.7	-2458.3	-2401.1	-2313.1	-2291	-2267	-2185.2	-2142.6	-2103.9	-2062.1	-2003.3	-1915	-1874.6	-1818.4	-1725.4	-1633.3	-1575.3	-1522.3	-1474.9	-1432.7	-1376.5	-1328.4	-1217.7	-1132.3	-1059.5	-995.8	-940.44	-889.7	-841.4	-800.94	-756.77	-716.13	-678.86	-641.33	-604.35	-570.52	-538.29	-502.24	-471.78	-443.67	-415.45	-387.12	-360.75	-336.66	-312.63	-291.08	-270.66	-251	-232.12	-213.13	-196.1	-181.17	-165.57	-150.33	-136.23	-123.13	-111.85	-99.968	-89.688	-78.909	-67.97	-57.892	-49.44	-40.134	-31.451	-25.375	-18.054	-13.601	-13.24	-6.9302	-2.8275	1.766	6.2312	9.6726	13.762	15.891	17.033	18.012	20.277	21.247	21.197	21.535	23.085	23.649	23.909	28.604	31.651	30.3	28.203	26.729	30.09	29.488	28.077	25.074	21.912	23.498	22.625	22.367	27.809	21.877	20.443	19.215	14.746	11.663	9.5406	8.9719	12.631	7.6694	2.948	4.8348	1.6003	-3.0599	-2.9963	-3.938	-6.2135	-3.9201	-6.7856	-10.882	-14.638	-16.173	-15.927	-15.849	-20.526	-21.747	-22.28	-26.625	-30.079	-27.874	-23.148	-25.945	-27.515	-30.144	-31.459	-34.736	-30.073	-28.503	-29.61	-29.301	-29.114	-30.413	-31.171	-31.565	-30.872	-30.073	-30.631	-33.773	-35.163	-18.978	-18.313	-18.326	-18.36	-20.324	-19.086	-18.495	-20.152	-21.724	-21.002	-22.168	-22.185	-24.822	-24.879	-23.421	-10.03	-10.921	-10.036	-11.071	-11.386	-11.185	-11.916	-16.943	-12.09	-13.073	-13.156	-13.098	-15.65	-15.37	-15.602	-17.895	-25.53	-29.091	-32.206	-38.13	-55.624	-55.292	-66.338	-68.584	-65.651	-70.518	-84.035	-89.312	-88.799	-90.203	-91.467	-92.974	-116.05	-115.6	-118.31	-118.5	-117.43	-129.82	-142.54	-142.78	-140.24	-142.4	-142.78	-128.84	-118.91	-107.42	-106.95	-116.74	-117.8	-117.37	-116.61	-117.15	-116.45	-114.46	-111.29	-107.46	-101.32	-90.313	-89.888	-88.032	-84.158	-79.359	-75.028	-71.568	-65.146	-63.082	-62.063	-62.395	-62.716	-65.353	-68.282	-70.222	-70.165	-69.005	-64.477	-59.728	-61.34	-63.111	-66.203	-69.337	-73.15	-76.441	-80.64	-85.566	-88.494	-93.835	-101.19	-107.43	-113.89	-120.58	-126.21	-131.8	-137.13	-143.71	-149.22	-156.04	-160.77	-165.99	-170.16	-176.26	-181.57	-186.5	-192.68	-197.34	-201.64	-204.56	-212.01	-218.87	-222.05	-224.74	-228.31	-231.38	-232.22	-234.2	-234.81	-236.29	-238.98	-237.96	-237.4	-237.83	-237.82	-238.28	-238.15	-238.42	-237.76	-238.85	-241.58	-242.79	-244.37	-244.45	-245.91	-247.3	-246.24	-245.97	-244.32	-243.97	-243.62	-242.29	-243.57	-245.21	-246.91	-247.98	-248.52	-249.33	-251.06	-253.23
-2935.7	-2963.1	-2994.2	-3006.4	-3028.7	-3049	-3062.6	-3073.4	-3083.1	-3091.7	-3110.4	-3112.3	-3125.1	-3133.4	-3136.9	-3140.2	-3142.5	-3138	-3144.5	-3140.1	-3133.5	-3124.4	-3113.2	-3103.6	-3088.7	-3071.5	-3044.4	-3051.9	-3022.8	-3004.9	-2978.9	-2945	-2901.8	-2904.3	-2880.1	-2870.9	-2856.2	-2841.5	-2830.3	-2823.1	-2815.9	-2806.9	-2795.7	-2761.7	-2760.3	-2716.4	-2677	-2631.6	-2572.9	-2553.2	-2541.4	-2486.9	-2425.1	-2322.2	-2298.9	-2239.4	-2198.1	-2154.3	-2097	-2011.9	-1976.9	-1943.6	-1903.5	-1837.2	-1781.3	-1715.2	-1646.7	-1574.8	-1528.7	-1484.3	-1424.1	-1382.1	-1340.5	-1278.1	-1189.2	-1104.4	-1033.5	-969.82	-913.81	-863.04	-814.04	-765.41	-726.54	-688.98	-647.19	-612.58	-577.09	-543.61	-511.13	-479.05	-448.77	-420.84	-392.47	-362.32	-336.61	-312.8	-290.79	-271.57	-251.4	-232.61	-213.7	-196.03	-179.07	-163.82	-148.95	-133.85	-120.65	-107.64	-95.226	-85.482	-77.167	-68.612	-58.487	-48.983	-40.977	-32.019	-24.15	-17.962	-13.803	-7.6707	-2.0826	-0.61784	3.1311	6.6879	10.286	13.638	15.567	19.294	21.398	22.128	23.136	24.247	23.887	24.614	25.553	25.311	26.219	25.636	24.972	22.568	20.914	29.056	27.964	24.805	22.402	23.147	25.152	22.432	18.362	18.149	15.554	22.001	24.62	21.915	17.462	12.09	9.3193	12.597	11.328	10.207	9.1878	9.8253	6.7225	2.5587	-0.058516	2.427	2.8555	-0.81522	-0.56915	-2.5549	-4.9072	-6.0672	-3.9615	-9.0133	-11.787	-15.009	-16.603	-19.236	-22.997	-24.398	-24.31	-28.377	-24.182	-23.575	-24.618	-24.124	-22.272	-22.729	-22.818	-26.044	-29.38	-29.284	-30.443	-32.599	-29.711	-27.007	-28.875	-31.079	-27.878	-29.328	-30.651	-32.496	-33.398	-33.312	-34.663	-33.418	-32.624	-34.054	-34.91	-37.974	-39.9	-39.943	-42.163	-42.97	-43.07	-44.53	-46.47	-46.499	-47.035	-47.601	-46.883	-23.636	-11.199	-12.986	-12.436	-12.608	-14.572	-10.197	-12.469	-13.584	-15.343	-17.912	-16.439	-15.886	-26.972	-37.262	-52.878	-54.403	-56.559	-58.198	-65.663	-67.119	-67.478	-69.225	-78.774	-87.921	-91.822	-93.422	-93.342	-94.752	-117.38	-117.67	-119.85	-135.09	-142.34	-142.16	-142.23	-142.7	-142.13	-140.71	-140.54	-139.92	-140.57	-140.95	-140.15	-140.3	-123.75	-115.93	-116.57	-115.88	-114.69	-102.17	-90.641	-90.154	-89.434	-87.429	-86.433	-83.038	-77.852	-73.373	-63.399	-63.36	-64.715	-64.956	-66.414	-68.059	-68.001	-65.317	-60.42	-56.038	-56.699	-57.651	-59.617	-62.158	-65.019	-68.35	-69.754	-73.826	-77.672	-82.192	-88.016	-94.186	-99.037	-105.35	-110.51	-116.74	-122.34	-127.35	-132.69	-139.79	-144.71	-149.74	-155.67	-160.48	-166.77	-173.14	-179.73	-184	-190.11	-194.67	-200.86	-208.8	-213.96	-218.61	-221.17	-223.7	-227.46	-231.56	-231.82	-232.27	-235.33	-237.31	-236.91	-237.18	-237.15	-237.43	-237.92	-238.44	-238.58	-240.68	-243.23	-246.33	-245.36	-248.04	-250.28	-251.5	-251.39	-251.7	-251.03	-249.59	-247.96	-247.63	-248.2	-249.55	-250.8	-251.16	-252.89	-253.38	-254.39	-255.3
-2889.8	-2911.3	-2936.8	-2960.2	-2981.7	-3000.1	-3013.6	-3026.5	-3042.2	-3055.6	-3067.8	-3081.4	-3093	-3100.5	-3107.1	-3111.9	-3115.7	-3114.7	-3113.3	-3111.8	-3106.6	-3100.4	-3092	-3080.7	-3063.7	-3041	-3048.3	-3023.3	-3004.8	-2978.8	-2951.9	-2919	-2902	-2874.9	-2864.4	-2848.5	-2836.5	-2824.3	-2812.6	-2801.6	-2793.2	-2785.7	-2758.3	-2756.4	-2702.6	-2654.2	-2611.6	-2569.1	-2548.3	-2502.9	-2472.4	-2423.5	-2359.3	-2295.9	-2226.8	-2174.4	-2125.3	-2073.9	-1997.4	-1969.8	-1886.8	-1835.8	-1779.8	-1723.6	-1668.9	-1612.2	-1548.8	-1502.6	-1458.5	-1421.5	-1381	-1323	-1270.4	-1206.8	-1133	-1059.6	-994.5	-935.25	-882.36	-833.58	-783.95	-738.85	-697.26	-656.05	-620.54	-584.88	-546.5	-511.98	-481.64	-452.96	-424.23	-398.18	-371.54	-342.62	-318.69	-296.52	-275.62	-255.21	-236.52	-217.98	-199.7	-181.63	-166.55	-151.51	-135.33	-122.82	-108.79	-96.625	-86.196	-75.926	-68.157	-60.684	-52.172	-41.346	-32.219	-26.054	-19.174	-12.632	-14.651	-9.7736	-4.5411	-0.82401	1.6573	5.6737	8.2526	10.766	13.404	14.281	15.328	16.195	16.058	17.808	19.435	19.151	18.857	19.86	18.741	17.287	15.894	14.487	16.096	19.221	20.974	19.146	16.143	22.983	16.949	14.058	13.261	14.065	22.45	18.933	15.14	12.208	17.001	14.699	13.942	17.886	14.951	11.926	15.914	14.217	12.55	10.24	11.097	12.555	11.481	8.2243	5.9556	9.6169	8.8174	5.7886	3.1304	1.1572	-2.5807	-4.9261	-8.4813	-11.693	-12.841	-16.376	-18.682	-17.729	-14.352	-16.373	-17.474	-20.548	-22.014	-25.331	-27.525	-29.583	-33.156	-35.307	-35.823	-28.352	-23.34	-23.546	-24.023	-26.645	-29.341	-29.483	-31.791	-33.775	-36.42	-35.528	-33.978	-33.917	-34.493	-33.815	-37.989	-39.233	-35.824	-37.308	-54.512	-65.17	-66.67	-66.5	-69.723	-71.786	-71.274	-71.703	-72.782	-58.345	-59.139	-45.769	-46.317	-47.052	-10.596	-9.9231	-12.304	-11.378	-12.996	-8.5723	-9.3863	-12.573	-13.338	-14.041	-26.797	-36.583	-42.568	-56.019	-55.996	-56.528	-62.225	-67.611	-69.942	-75.829	-79.781	-84.086	-84.892	-91.495	-92.743	-94.687	-94.248	-117.58	-118.03	-130.12	-132.33	-131.9	-130.16	-117.27	-116.57	-117.28	-118.6	-117.91	-117.39	-128.18	-116.38	-115.91	-115.92	-116.06	-115.41	-100.29	-93.828	-91.177	-88.592	-88.167	-87.784	-87.039	-85.308	-84.553	-83.527	-72.096	-65.749	-66.562	-67.928	-65.608	-64.029	-63.283	-58.208	-50.759	-49.753	-50.77	-54.502	-55.536	-58.481	-61.763	-63.134	-63.67	-68.248	-72.144	-77.148	-80.549	-85.753	-91.226	-97.17	-101.98	-106.61	-112.55	-118.16	-124.47	-128.63	-134.41	-139.46	-146.07	-152.87	-159.34	-166.24	-172.63	-178.25	-183.82	-190.13	-198.2	-204.54	-208.26	-213.2	-217.39	-220.99	-223.95	-227.58	-229.06	-230.03	-232.29	-234.98	-235.56	-237.5	-236.79	-236.32	-237.58	-239.04	-241.04	-244.21	-246.94	-248.93	-249.91	-254.73	-256.57	-257.32	-258.62	-256.5	-254.29	-253.48	-252.14	-252.8	-253.89	-255.12	-256.76	-257.4	-257.33	-257.9	-259.01
-2845.4	-2862.2	-2885.7	-2908.6	-2932.3	-2951.1	-2962.5	-2987	-3002.6	-3019.3	-3032.1	-3047.5	-3060.5	-3072.5	-3072.1	-3090.6	-3089.9	-3089	-3089.1	-3088.9	-3086.7	-3081	-3075	-3064.1	-3042.1	-3048.4	-3026.8	-3010.3	-2985.5	-2958.8	-2932.3	-2910.2	-2889.8	-2871.4	-2856.3	-2842.3	-2829.3	-2817.1	-2801.8	-2786.9	-2775.1	-2763.9	-2759.6	-2712.8	-2661.3	-2610.1	-2561.8	-2550.9	-2508.4	-2468.6	-2422	-2368.3	-2300.7	-2275.4	-2186.5	-2119.7	-2069.5	-2000.8	-1971	-1874.6	-1807.8	-1737.1	-1665	-1628.8	-1588.4	-1542.4	-1478.2	-1424.1	-1378.2	-1324.4	-1269.9	-1213.6	-1163.7	-1115.4	-1064.5	-1006.5	-948.84	-897.53	-847	-799.87	-755.06	-711.61	-670.43	-632.12	-595.16	-558.69	-521.45	-490.08	-458.18	-428.65	-396.49	-367.18	-341.3	-317.37	-296.12	-275.15	-254.78	-235.77	-217.31	-199.48	-185.49	-172.81	-155.54	-138.97	-124.06	-108.76	-96.396	-87.033	-76.385	-65.148	-55.491	-48.291	-38.018	-37.462	-31.125	-27.36	-22.01	-14.79	-9.6942	-14.813	-15.607	-13.021	-11.291	-7.7565	-2.5272	1.5478	2.6319	4.3587	5.1434	5.8641	7.624	8.5123	8.7639	9.012	8.2678	7.4678	6.8633	3.8254	2.9279	3.9403	4.3127	7.9829	12.996	11.851	10.054	8.8998	6.8611	6.1526	5.1788	2.9034	11.638	13.57	12.142	13.951	19.423	19.194	15.79	19.71	21.411	26.289	22.898	20.642	19.932	20.385	19.849	20.476	21.934	22.23	25.528	22.882	21.05	17.262	15.011	12.233	9.8993	4.8964	1.3142	-0.33857	-4.204	-6.6419	-9.7363	-13.399	-15.741	-19.263	-22.835	-24.403	-26.296	-29.11	-32.138	-34.791	-37.455	-41.194	-42.474	-28.44	-24.06	-28.188	-28.984	-30.574	-34.414	-37.524	-37.456	-39.57	-41.351	-35.07	-26.917	-26.299	-30.077	-31.484	-31.451	-34.848	-32.698	-37.728	-56.076	-56.145	-57.301	-61.256	-78.319	-104.79	-157.62	-156.66	-117.46	-109.12	-90.466	-67.571	-67.569	-60.355	-61.367	-42.535	-43.054	-45.272	-7.7565	-6.9413	-8.5195	-12.447	-7.0669	-10.621	-11.647	-15.825	-28.495	-40.892	-46.586	-52.975	-53.752	-62.273	-62.589	-67.732	-70.972	-74.541	-82.23	-86.292	-88.981	-90.25	-91.39	-91.74	-113.88	-114.71	-115.71	-115.61	-113.89	-104.71	-92.199	-92.082	-92.854	-92.642	-92.84	-93.038	-92.77	-92.488	-93.103	-91.222	-89.694	-89.766	-87.342	-87.813	-88.546	-88.344	-87.754	-85.921	-84.69	-84.883	-84.727	-72.278	-65.421	-66.989	-67.702	-67.33	-64.718	-62.486	-54.081	-43.57	-43.515	-43.904	-47.295	-51.138	-52.796	-55.212	-57.298	-57.448	-59.686	-63.199	-66.38	-69.765	-74.029	-78.353	-84.216	-88.578	-93.03	-97.498	-104.03	-109.24	-113.21	-117.79	-124.62	-131.6	-137.62	-143.72	-151.59	-159	-166.73	-173.01	-179.28	-186.32	-193.6	-198.59	-203.24	-208.35	-213.82	-218.62	-221.73	-223.79	-226.5	-229.35	-231.1	-232.49	-235.12	-235.15	-236.43	-236.5	-238.17	-241.14	-244.15	-247.45	-249.57	-252.05	-256.81	-262.62	-263.53	-262.53	-260.61	-259.53	-258.15	-257.62	-258.06	-257.94	-259.67	-261.37	-263.02	-263.16	-263.58	-263.75
-2790	-2810.4	-2835.6	-2859.6	-2884.4	-2904.1	-2925.2	-2943.3	-2962.7	-2981	-2996.1	-3013.3	-3030.4	-3039	-3060.3	-3058.3	-3063.3	-3066.6	-3068.9	-3070.4	-3071.8	-3067.6	-3063.8	-3054.7	-3050.7	-3033.1	-3019.5	-2999.1	-2973.8	-2947	-2920	-2908	-2889.1	-2872.5	-2858.9	-2844.4	-2831.7	-2819.2	-2802.2	-2780.3	-2775.5	-2758	-2728.1	-2685.8	-2632.2	-2575.1	-2561.6	-2518.5	-2482.7	-2440.4	-2383.3	-2313.7	-2290.4	-2216.5	-2144.9	-2076.9	-2008.8	-1979.2	-1892.8	-1807	-1718.1	-1666.8	-1628.6	-1554.7	-1511.5	-1456.9	-1400	-1341.6	-1283.3	-1226.5	-1169.1	-1123.8	-1081.7	-1036.3	-994.54	-948.58	-902.44	-856.02	-812.53	-767.25	-723.52	-683.3	-644.61	-607.53	-572.22	-536.36	-499.86	-466.49	-436.49	-407.93	-370.73	-344.73	-320.31	-297.53	-275.58	-256.03	-237.6	-218.9	-200.05	-184.56	-175.73	-159.14	-141.33	-120.17	-114.77	-102.22	-93.961	-83.916	-72.934	-60.999	-51.653	-44.818	-36.484	-30.096	-40.192	-36.961	-31.742	-26.532	-24.545	-24.504	-25.522	-29.9	-27.02	-23.167	-16.268	-11.292	-10.107	-9.0185	-7.8698	-6.8397	-6.8263	-5.9801	-5.4168	-5.5275	-6.1541	-6.8809	-7.7637	-9.2387	-9.7067	-10.503	-10.072	-8.1192	-7.4198	-5.9371	-4.4352	-2.1905	1.1227	2.1493	3.7868	10.429	8.3717	9.523	9.4423	15.251	20.302	24.157	28.275	26.515	25.98	30.699	31.528	30.484	32.039	34.193	31.503	29.616	32.577	33.73	33.377	34.159	33.456	30.499	28.532	25.613	21.422	15.796	12.162	9.3475	7.3175	3.9668	-1.6048	-14.369	-17.501	-20.287	-23.913	-26.82	-28.726	-22.713	-22.746	-26.173	-28.365	-30.589	-29.663	-26.325	-29.129	-31.663	-36.53	-38.618	-38.653	-42.652	-45.979	-46.751	-36.943	-27.608	-31.104	-32.571	-32.879	-35.388	-38.404	-21.124	-22.594	-24.69	-25.571	-26.902	-47.069	-49.935	-52.593	-144.42	-145.83	-149.06	-147.88	-147.21	-148.82	-73.895	-57.669	-59.089	-57.359	-63.355	-63.043	-63.088	-37.982	-37.493	-36.295	-3.0874	-3.409	-2.7441	-4.4699	-7.1059	-19.531	-30.411	-34.646	-42.091	-47.868	-51.571	-57.045	-58.13	-62.197	-63.665	-73.674	-81.579	-84.05	-83.647	-84.056	-85.589	-86.866	-86.528	-94.215	-88.229	-87.433	-87.202	-86.7	-80.433	-78.128	-77.42	-78.533	-79.658	-77.864	-78.065	-78.468	-78.407	-76.894	-75.931	-77.227	-78.395	-76.859	-76.836	-76.15	-75.844	-75.452	-74.785	-71.883	-61.597	-61.949	-62.429	-61.828	-60.292	-59.167	-54.182	-43.151	-36.406	-36.916	-38.321	-40.666	-44.877	-49.046	-51.124	-51.775	-52.575	-53.858	-55.661	-57.248	-59.964	-63.536	-67.723	-71.516	-76.841	-81.686	-85.62	-89.253	-95.069	-99.988	-104.4	-110.46	-117.83	-124.24	-131.41	-137.99	-145.98	-153.74	-160.84	-167.96	-175.3	-181.47	-187.09	-193.49	-198.98	-204.95	-210.02	-215.54	-218.25	-220.92	-223.79	-227.19	-228.81	-231.26	-231.66	-234.37	-237.14	-236.77	-240.32	-245.08	-248.82	-251.08	-254.75	-259.38	-266.75	-268.93	-268.53	-266.1	-263.99	-263.77	-263.58	-263.74	-263.28	-265.15	-267.15	-268.73	-270.55	-269.92	-269.96
-2742.9	-2762.6	-2790.3	-2814.6	-2838.9	-2859.4	-2893	-2905.5	-2924.5	-2944.7	-2960.7	-2981.1	-2995.5	-3024.4	-3025.1	-3032	-3040.8	-3048.2	-3053.7	-3058.3	-3061	-3058.7	-3058.6	-3050.4	-3047.3	-3032.4	-3016.8	-2998.1	-2969.9	-2935.5	-2940	-2914.8	-2898	-2883.3	-2870.6	-2857.7	-2845.2	-2833.4	-2814.5	-2795.4	-2774.8	-2753.8	-2720.3	-2680.9	-2628.9	-2584.6	-2544	-2512.6	-2470.5	-2426	-2367.7	-2310.9	-2248.6	-2185.4	-2109.2	-2027.7	-1995.8	-1913.1	-1834.7	-1745.9	-1679.9	-1614.1	-1559.2	-1504.7	-1447.2	-1393	-1341.5	-1281.8	-1214.7	-1166.2	-1115.5	-1063.1	-1022.2	-984.68	-949.18	-904.59	-862.85	-819.78	-777.83	-736.34	-694.36	-654.6	-616.48	-579.57	-545.78	-511.57	-478.9	-449.11	-419.69	-391.26	-376.66	-352.13	-328.29	-307.23	-286.89	-266.74	-248.34	-232.09	-214.89	-198.43	-167.6	-154.16	-132.36	-108.66	-96.914	-101.33	-94.075	-83.156	-75.097	-69.22	-77.589	-71.627	-65.786	-59.338	-53.634	-49.196	-44.015	-40.759	-38.309	-36.328	-32.782	-30.202	-35.096	-31.088	-24.294	-21.592	-20.07	-20.175	-19.463	-17.314	-16.913	-16.662	-16.101	-16.222	-16.184	-16.539	-17.105	-17.61	-18.171	-17.877	-17.896	-17.425	-18.543	-18.9	-15.225	-9.3939	-4.0144	0.10538	5.1671	8.7551	10.466	9.508	13.171	17.553	22.201	26.994	31.415	32.659	33.318	37.118	37.594	40.352	44.239	46.158	45.451	47.401	44.529	44.372	42.059	45.241	46.438	45.339	41.441	40.031	35.772	26.676	22.46	19.931	17.762	15.672	11.443	-0.10325	-4.9394	-8.6578	-11.729	-16.999	-19.209	-9.729	-13.315	-16.25	-18.941	-21.769	-25.569	-29.199	-32.115	-35.195	-37.698	-40.96	-43.14	-37.582	-36.792	-28.863	-29.628	-31.814	-34.407	-37.372	-27.86	-28.589	-28.343	-23.24	-23.529	-24.995	-28.293	-12.081	-13.947	-16.383	-26.483	-27.149	-33.776	-35.401	-45.008	-44.807	-44.006	-46.474	-48.664	-47.943	-41.343	-48.463	-53.939	-53.772	-52.32	-38.664	-25.061	-26.537	-27.806	-29.006	-11.851	-11.076	-14.281	-21.468	-25.276	-28.399	-35.271	-40.463	-43.143	-48.09	-49.469	-52.639	-59.629	-72.076	-73.412	-75.738	-75.333	-75.678	-78.459	-70.835	-77.981	-70.6	-69.041	-69.227	-67.756	-61.115	-63.274	-64.066	-62.711	-63.307	-63.304	-63.662	-64.104	-62.294	-62.207	-61.9	-61.331	-60.978	-61.46	-60.524	-60.213	-59.619	-60.755	-59.088	-58.602	-57.909	-54.275	-51.566	-50.187	-48.029	-44.957	-36.817	-29.193	-26.055	-28.813	-31.121	-34.661	-39.296	-44.44	-48.2	-47.948	-47.266	-47.243	-49.155	-50.593	-52.475	-54.698	-59.126	-63.098	-65.49	-69.525	-72.7	-76.944	-82.187	-86.062	-91.432	-97.817	-104.76	-112.19	-118.26	-125.46	-133.18	-141.92	-148	-154.75	-162.86	-170.22	-175.02	-181.36	-188.52	-196.3	-200.25	-205.26	-209.12	-215.41	-217.86	-220.06	-224.27	-226.85	-228.38	-231.53	-233.51	-237.35	-240.56	-245.1	-249.84	-253.24	-255.81	-261.31	-268.58	-272.42	-272.11	-269.94	-268.78	-268.4	-269.58	-268.54	-269.5	-271.14	-272.79	-275.42	-277.26	-275.53	-276.13
-2702.4	-2722.3	-2748.3	-2772.9	-2796.5	-2822.8	-2846	-2865.7	-2886.3	-2907.2	-2926	-2941.8	-2973.8	-2987.8	-2995.7	-3007.8	-3021.8	-3033.3	-3039.7	-3047.5	-3053.1	-3051.5	-3051.9	-3055.6	-3046.4	-3032.3	-3018.2	-3003.1	-2976.6	-2955.4	-2939.1	-2930.7	-2915	-2902.4	-2889.7	-2879.5	-2865.4	-2852.2	-2836.1	-2821.8	-2794	-2765.1	-2729.6	-2685.6	-2635.7	-2599.1	-2558.5	-2516.6	-2471.4	-2425.4	-2373.2	-2314.4	-2245.5	-2168	-2088.7	-2021.9	-1949.2	-1865.6	-1782.3	-1700.7	-1660.4	-1579.5	-1515.5	-1454.2	-1396.2	-1340.9	-1289.3	-1233.7	-1175	-1135.1	-1092.4	-1047.7	-1003.8	-959.99	-915	-868.72	-827.99	-788.39	-747	-705.32	-665.31	-626.41	-589.95	-552.5	-518.74	-486.94	-455.4	-425.66	-398.29	-370.54	-353.26	-331.83	-309.84	-290.76	-276.49	-257.62	-240.26	-225.95	-210.24	-195.86	-182.42	-169.02	-156.45	-126.54	-116.68	-107.06	-96.643	-89.023	-81.538	-74.416	-75.106	-71.899	-68.105	-62.816	-57.086	-53.731	-50.768	-48.664	-45.384	-43.782	-41.601	-40.052	-39.987	-37.366	-34.208	-31.983	-30.339	-30.098	-28.479	-26.658	-25.924	-25.939	-25.824	-25.26	-24.976	-25.491	-24.751	-25.231	-23.171	-23.15	-23.311	-21.474	-18.573	-16.805	-15.93	-10.559	-4.0349	-1.6509	4.4526	8.782	11.12	16.634	19.791	22.618	22.635	27.586	33.223	36.394	38.167	41.146	47.535	47.785	52.825	56.273	57.697	56.79	55.959	53.557	58.27	56.178	53.128	52.319	52.161	48.799	46.348	44.171	35.586	29.318	19.681	17.665	15.428	11.654	6.406	4.391	1.9873	-0.71789	-20.376	-19.185	-18.283	-31.468	-16.995	-19.621	-21.827	-25.343	-28.76	-31.702	-33.859	-36.587	-40.285	-23.845	-26.315	-28.892	-31.307	-33.127	-25.799	-15.261	-17.933	-19.91	-20.971	-24.776	-26.544	-17.87	-14.495	-11.999	-13.985	-15.34	-17.597	-20.435	-21.309	-17.407	-11.944	-9.5217	-9.39	-9.8188	-13.498	-14.617	-26.336	-26.251	-36.482	-38.169	-37.914	-20.342	-14.466	-16.507	-16.565	-13.378	-14.604	-14.821	-9.9088	-10.536	-14.661	-18.192	-20.854	-22.706	-27.818	-27.405	-27.219	-37.859	-38.507	-38.162	-41.189	-41.757	-45.149	-45.823	-43.913	-46.527	-48.902	-47.659	-48.675	-48.668	-51.749	-51.86	-45.007	-46.309	-47.8	-46.586	-45.673	-46.113	-46.726	-45.72	-44.909	-44.576	-46.405	-45.341	-44.912	-45.986	-46.43	-46.018	-46.281	-47.018	-46.979	-45.16	-41.289	-34.609	-16.627	-3.5399	-0.47695	2.3479	4.6999	4.7581	3.4103	-8.6749	-24.18	-33.096	-39.604	-43.923	-43.37	-43.294	-42.678	-43.382	-44.714	-46.105	-47.236	-50.237	-52.922	-56.414	-58.09	-59.965	-65.05	-71.398	-75.315	-79.513	-85.103	-92.223	-99.62	-105.93	-113.81	-121.18	-127.38	-134.66	-141.58	-149.56	-156.7	-163.59	-169.45	-176.47	-184.08	-189.16	-194.87	-199.9	-204.98	-209.77	-213.87	-217.45	-219.7	-224.19	-228.37	-232.12	-234.77	-240	-246.2	-250.53	-255.97	-256.75	-263.41	-268.78	-272.38	-274.99	-274.52	-272.21	-272.63	-273.17	-273.54	-274.89	-275.53	-278.54	-282.01	-282.91	-283.43	-282.36
-2650.1	-2669.5	-2695.8	-2721.1	-2746.1	-2773.4	-2796.8	-2819.7	-2842.2	-2864.8	-2886.5	-2912.4	-2935.3	-2956.8	-2971.7	-2988.8	-3005.6	-3021.1	-3028.5	-3037.7	-3045.9	-3048	-3045.4	-3047.5	-3043.3	-3033.2	-3023.8	-3011.3	-2991.9	-2974.1	-2956.2	-2949.4	-2937.7	-2927.4	-2916	-2905.8	-2891.9	-2874.3	-2850.6	-2843.4	-2817.3	-2778.6	-2740.9	-2690.7	-2632.2	-2615.7	-2571.6	-2525.2	-2478.5	-2431.7	-2385.5	-2322.1	-2249.3	-2154.8	-2055.3	-2021.1	-1935	-1839.6	-1735.9	-1692	-1618.2	-1547.4	-1479	-1418.3	-1360.5	-1302.1	-1253.8	-1208.6	-1158.9	-1113.4	-1076.4	-1030.6	-983.01	-940.18	-897.56	-850.49	-805.67	-765.36	-722.89	-680.6	-640.13	-601.72	-565.2	-529.09	-504.02	-471.36	-441.36	-410.69	-383.14	-358.1	-333.29	-309.68	-288.32	-267.3	-253.24	-236.89	-221.79	-207.61	-194.91	-182.27	-169.35	-157.18	-141.43	-126.84	-116.17	-108.03	-100.46	-92.663	-85.39	-79.024	-73.644	-67.642	-61.37	-56.163	-51.208	-49.177	-46.41	-47.986	-50.41	-51.016	-49.5	-48.381	-46.355	-43.749	-41.574	-40.084	-38.824	-35.948	-35.228	-33.844	-30.932	-30.959	-32.004	-31.03	-29.874	-29.076	-29.263	-25.906	-24.959	-24.72	-23.203	-21.032	-13.865	-11.347	-10.499	-6.4757	-3.0264	0.056823	4.4455	9.7863	14.905	24.783	29.937	32.873	30.368	30.816	34.039	38.69	43.541	46.754	52.027	59.69	59.485	64.175	68.397	68.073	66.435	66.122	64.93	65.654	62.166	58.64	59.379	59.161	55.309	52.445	42.861	40.433	33.009	28.683	24.924	20.488	12.724	-3.0781	-2.9984	-5.661	-7.814	-11	-15.06	-17.967	-22.104	-24.872	-28.22	-31.177	-34.865	-37.142	-27.99	-27.539	-17.075	-19.374	-21.313	-24.129	-19.758	-17.809	-13.305	-15.064	-16.992	-19.666	-13.128	-13.779	-11.535	-6.9814	-9.093	-12.007	-15.012	-16.824	-17.8	-20.406	-11.393	-9.9721	-8.4265	-5.2129	-8.3659	-9.8428	-9.5016	-12.56	-14.71	-10.723	0.58961	1.5248	-0.27191	-0.48629	-0.94013	-2.2397	-1.5946	1.9615	1.2565	0.32933	-1.4397	-1.621	-3.9635	-5.5427	-7.4633	-8.0201	-8.3003	-11.476	-12.792	-12.179	-7.4595	-7.4809	-13.985	-1.6373	-1.7126	-4.1338	-16.416	-13.873	-15.549	-17.59	-17.06	-18.975	-19.928	-27.253	-28.715	-29.135	-30.076	-31.664	-29.838	-28.103	-28.146	-28.385	-25.749	-26.8	-26.43	-28.922	-27.885	-26.854	-29.636	-32.627	-31.223	-31.502	-30.675	-31.608	-33.058	-21.072	22.448	25.641	24.108	24.288	24.18	22.295	22.144	10.008	-16.206	-28.054	-35.131	-37.128	-37.687	-37.711	-37.28	-37.238	-38.715	-39.699	-41.303	-42.809	-45.818	-48.236	-49.862	-52.184	-55.716	-60.952	-66.915	-70.022	-75.252	-80.926	-87.652	-95.339	-103.05	-109.01	-114.63	-122.18	-130.12	-137.9	-145.43	-151.62	-158.84	-166.11	-172.21	-178.68	-184.34	-190.21	-195.98	-200.71	-205.5	-211.35	-215.27	-219.46	-224.71	-228.15	-234.16	-238.41	-243.6	-249.76	-255.64	-258.37	-261.9	-265.76	-270.08	-274.52	-274.09	-274.22	-274.03	-273.91	-273.91	-275.04	-278.11	-280.06	-283.26	-285.56	-285.67	-285.99
-2601.4	-2624.7	-2648.4	-2674	-2697.2	-2724.6	-2750.3	-2778.9	-2803.1	-2822.8	-2844.6	-2871.1	-2902.2	-2926.5	-2946.6	-2966.4	-2986.9	-3006.1	-3016.7	-3027.1	-3036	-3039.9	-3039.4	-3035.7	-3036.8	-3031.7	-3026.9	-3019.8	-3001.7	-2985	-2971.8	-2969.3	-2959.7	-2950	-2937.6	-2927.2	-2913	-2889.6	-2869	-2868.5	-2824.1	-2785.4	-2745.8	-2695.5	-2646	-2604.1	-2575.4	-2531.1	-2483.9	-2435.7	-2392	-2329.2	-2249.9	-2146.5	-2058.3	-2020.1	-1918.7	-1823.9	-1748.5	-1679.7	-1596.7	-1517.4	-1448.1	-1390.1	-1330.8	-1270.6	-1226.8	-1181.3	-1135.4	-1089	-1049.3	-1008.7	-964.6	-917.94	-877.78	-830.08	-784.46	-741.43	-698.81	-655.44	-613.72	-579.71	-541.07	-505.31	-471.72	-446.25	-413.98	-384.22	-357.37	-335.79	-312.72	-288.1	-267.16	-247.62	-229.94	-213.22	-199.18	-187.91	-173.81	-160.94	-151.94	-138.34	-126.12	-117.15	-109.39	-101.63	-94.199	-88.716	-82.942	-77.479	-73.821	-64.977	-61.521	-53.526	-50.144	-46.613	-46.052	-43.707	-44.663	-42.814	-41.609	-41.5	-39.591	-36.427	-34.076	-32.849	-33.938	-33.754	-32.862	-32.466	-30.435	-27.314	-27.771	-29.564	-26.114	-25.513	-24.295	-24.114	-24.968	-24.569	-23.44	-20.245	-15.298	-6.2664	-6.2992	-5.1572	1.9699	3.5063	4.87	8.7561	13.604	23.577	35.129	37.579	43.326	41.865	44.362	45.839	48.143	48.403	51.614	55.346	61.464	65.371	65.509	65.959	66.045	64.199	64.665	63.595	63.576	61.343	58.799	58.158	58.695	57.537	55.521	45.898	41.106	36.107	33.184	29.489	22.749	16.193	7.9641	6.8063	3.899	-1.1	-5.578	-8.886	-14.944	-18.952	-22.004	-24.031	-25.759	-24.108	-18.657	-19.207	-22.517	-13.746	-10.494	-8.0954	-4.56	-6.1435	-0.85222	-1.2064	-3.062	2.6089	0.22999	-0.37888	4.1918	4.6146	2.2301	0.82956	-1.606	-3.9628	-5.6343	-5.9227	0.26928	-2.054	-4.3136	-6.779	-7.0983	-9.7123	-0.83505	0.22105	0.065087	6.0923	5.1675	5.678	3.7716	3.0657	2.771	0.80227	17.132	15.42	13.084	12.193	18.314	22.03	21.986	19.292	18.602	29.703	28.189	27.916	25.474	23.214	23.624	20.531	18.971	-27.298	-27.258	-13.8	14.115	12.556	13.454	12.008	5.7283	5.8553	3.9463	-3.5776	-5.5305	-9.5641	-11.253	-9.9452	-11.056	-11.334	-6.5711	-6.0405	-5.4473	-6.7752	-7.3967	-3.4846	-5.6082	-6.875	-6.5574	-8.3304	-12.792	-14.193	-14.75	-19.305	-21.244	-22.46	-21.322	6.8048	13.342	-22.403	5.0503	30.861	30.269	2.3512	-12.018	-24.02	-28.75	-29.748	-28.435	-28.71	-29.393	-31.06	-32.264	-33.121	-34.864	-37.244	-39.85	-41.624	-43.389	-46.506	-48.969	-53.462	-56.398	-60.796	-65.95	-71.289	-75.59	-82.86	-91.699	-97.842	-103.34	-109.68	-118.37	-126.49	-133.33	-140.7	-147.98	-155.52	-161.95	-168.77	-174.47	-180.33	-186.57	-191.62	-196.72	-202.96	-208.9	-214.84	-217.87	-223.22	-229.96	-235.7	-240.49	-246.09	-251.32	-256.62	-260.25	-264.15	-263.5	-268.95	-273.63	-272.11	-271.97	-273.88	-273.53	-274.61	-277.71	-279.53	-283.6	-285.15	-287.16	-287.81
-2564.7	-2581.3	-2605.7	-2630.5	-2653.4	-2671.7	-2713.5	-2735.7	-2763.9	-2784.9	-2802.8	-2840	-2867.2	-2897.5	-2920.9	-2941	-2962.2	-2983.5	-2997.7	-3010.6	-3022.6	-3023.6	-3021	-3019	-3025.4	-3025.2	-3023.7	-3020.5	-3007.8	-2981.3	-2990.7	-2975.5	-2972.3	-2962.2	-2948.8	-2937.2	-2920.5	-2892.7	-2869.2	-2849.6	-2823.3	-2779.5	-2740.4	-2694.4	-2645.3	-2601.1	-2567.8	-2526.4	-2482.5	-2434.3	-2388.2	-2327.1	-2245.1	-2146.9	-2053.9	-1984.3	-1908.1	-1815.4	-1745.3	-1659.4	-1576	-1494.5	-1422.8	-1362.7	-1306.8	-1241.6	-1199.6	-1156	-1109.4	-1062.4	-1023.3	-983.7	-939.46	-899.08	-857.4	-809.51	-763.03	-716.66	-673.85	-629.11	-589.07	-548.87	-517.52	-480.73	-448.01	-418.57	-387.29	-357.87	-330.61	-307.33	-284.37	-262.15	-241.2	-220.83	-204.35	-189.87	-179.04	-166.11	-153.52	-141.02	-132.5	-122.79	-112.43	-105.21	-104.95	-98.017	-91.435	-86.867	-82.915	-78.077	-73.864	-71.382	-68.055	-64.195	-62.328	-61.236	-58.485	-58.822	-40.852	-40.118	-40.018	-38.532	-36.131	-32.242	-31.543	-31.557	-33.34	-33.424	-33.216	-33.657	-29.975	-28.312	-31.257	-33.451	-29.768	-27.873	-27.253	-26.982	-26.902	-26.767	-24.807	-20.274	-15.667	-12.756	-8.358	-0.09624	0.025996	0.60097	2.946	4.4355	6.2594	17.868	26.209	42.765	44.298	45.213	47.019	47	46.953	56.635	55.791	57.481	61.421	63.778	62.482	61.781	62.151	63.075	61.051	60.212	60.597	71.499	58.684	55.888	57.523	56.868	53.852	50.603	47.865	45.106	42.386	38.516	32.933	27.021	20.08	14.537	12.057	5.987	0.36601	-2.569	-5.6132	-11.11	-13.63	-14.26	-13.765	-15.784	-13.964	-12.955	-9.7997	-4.7797	-0.92134	4.8299	5.4584	8.6638	13.019	11.637	9.0076	14.333	13.798	13.943	18.575	15.763	13.458	13.098	11.495	9.145	6.6902	5.1182	1.3128	-1.4459	-3.7167	-4.9475	-7.1791	3.2304	11.708	10.503	8.2852	6.3039	6.3211	5.6505	5.4398	4.3654	15.311	24.173	23.127	20.884	16.956	15.527	14.602	12.819	12.552	26.521	29.408	26.348	4.9978	3.5801	2.5428	1.0641	-1.5645	-2.7142	-2.9674	-4.6911	-8.7674	0.34077	-8.7882	-9.6182	11.931	20.527	25.571	27.5	26.949	23.643	14.222	13.819	9.6852	10.484	10.904	11.831	12.521	16.625	16.782	14.877	12.191	11.287	9.5813	5.8661	5.3345	5.947	5.2243	0.79276	1.6791	3.2281	-1.9022	-1.3214	-3.5337	-2.6833	-2.8113	-5.6128	-8.4353	-13.55	-14.911	-14.218	-15.437	-15.042	-15.541	-16.192	-16.54	-17.289	-19.455	-21.662	-24.252	-26.633	-28.771	-30.209	-32.803	-35.453	-37.752	-41.523	-42.282	-44.084	-47.044	-51.035	-55.341	-60	-65.154	-71.467	-79.583	-87.388	-93.563	-99.065	-106.1	-115.31	-121.83	-128.99	-136.71	-145.17	-151.49	-157.79	-163.71	-170.46	-176.44	-181.22	-188.57	-194.63	-201.31	-206	-211.52	-218.15	-223.72	-229.72	-235.07	-240.89	-245.25	-249.7	-253.62	-258.33	-261.33	-260.04	-265.41	-269.19	-269.98	-270.41	-271.26	-272.4	-274.24	-277.34	-280.4	-282.57	-284.67	-286.69
-2516.1	-2547.2	-2560.8	-2588	-2613.7	-2631.7	-2659.3	-2687.5	-2725	-2750.8	-2772.9	-2792.7	-2831	-2869.4	-2888	-2909.2	-2931.2	-2954.2	-2972.6	-2988	-3001.6	-3006.9	-2988.6	-3011.7	-3005.2	-3012.3	-3013.3	-3011.7	-3007.2	-2990.3	-2968.3	-2982	-2965.6	-2961.8	-2947.3	-2933.9	-2916.7	-2886.7	-2852.7	-2850.6	-2807.1	-2765.7	-2726.5	-2685.3	-2628.6	-2609	-2560.9	-2523.4	-2479.1	-2429.5	-2372.6	-2316.1	-2236.1	-2150	-2060.4	-1989.6	-1890.5	-1806.2	-1725.5	-1637	-1550.4	-1472	-1403	-1344.3	-1287.1	-1215.5	-1177.5	-1132.2	-1086	-1036.2	-1000	-965.68	-921.59	-878.69	-837.36	-787.65	-739.67	-693.98	-646.44	-604.63	-562.24	-526.12	-493.61	-456.88	-423.45	-390.77	-362.3	-332.91	-303.61	-279.92	-257.79	-236.27	-215.13	-196.69	-180.7	-168.13	-156.86	-144.77	-135.69	-125.07	-116.45	-105.89	-98.794	-91.044	-85.951	-82.897	-83.976	-77.731	-75.091	-71.36	-67.12	-64.846	-64.31	-61.488	-61.245	-60.238	-61.858	-58.097	-58.772	-58.313	-56.243	-56.263	-53.817	-48.481	-49.976	-50.222	-49.004	-50.741	-52.103	-52.914	-46.864	-36.213	-37.513	-38.95	-33.028	-33.168	-32.054	-31.212	-31.385	-30.304	-25.177	-21.939	-21.645	-19.299	-16.664	-14.75	-15.206	-13.771	-10.774	-2.6057	1.6661	10.99	11.879	11.929	12.714	15.152	15.866	35.901	52.389	51.759	52.776	52.406	52.376	52.817	53.916	51.978	52.125	52.937	52.776	50.245	50.971	49.719	48.906	49.336	48.212	47.857	47.159	45.689	44.995	45.244	40.976	39.328	34.641	28.062	20.774	17.746	13.399	10.93	5.7804	0.57746	-2.2035	-1.7633	-6.0871	-8.3381	-7.9034	-8.9588	-11.192	-9.8128	-5.9565	1.3819	10.385	9.288	16.884	21.599	20.007	21.051	29.017	26.922	22.955	21.876	21.248	19.141	18.054	24.345	25.787	22.528	19.882	17.517	15.624	12.108	10.49	8.1589	9.9072	12.855	12.227	10.045	8.2387	5.6873	17.571	19.155	20.405	26.808	25.847	25.238	23.806	20.804	17.518	15.986	14.587	21.525	35.323	34.321	32.806	30.805	28.897	16.872	13.994	12.337	9.9646	8.5027	7.9468	7.3014	7.668	9.1654	8.1919	13.607	12.234	25.625	34.107	46.072	49.307	48.151	41.774	35.836	34.375	32.148	34.697	36.273	37.481	39.66	39.246	38.088	32.018	26.88	21.404	16.318	14.933	13.747	13.64	14.763	13.494	15.239	17.837	17.939	16.303	12.46	8.5079	7.3026	2.2405	5.061	3.5989	4.5819	0.72715	-1.8817	-1.8688	-0.37902	-1.7384	-5.3479	-7.9255	-9.824	-13.792	-16.157	-21.269	-24.269	-25.363	-29.399	-31.518	-33.24	-35.874	-38.135	-42.294	-41.436	-45.997	-50.491	-54.764	-60.593	-68.706	-76.282	-82.987	-87.963	-96.004	-104.03	-111.15	-117.99	-124.62	-133.01	-139.87	-146.1	-151.59	-159.2	-165.33	-172.22	-178.23	-184.87	-190.59	-198.56	-204.42	-210.23	-215.89	-223.13	-227.43	-232.23	-238.87	-241.96	-246.58	-251.08	-253.58	-255.98	-258.99	-262.18	-264.57	-266.71	-270.35	-271.74	-271.4	-274.64	-276.05	-278.86	-280.8	-284.44
-2488	-2491.3	-2521.7	-2539.4	-2571.5	-2592	-2607.3	-2645.8	-2678.7	-2710.3	-2738.4	-2763.3	-2790.7	-2814.2	-2852.5	-2865.9	-2892.9	-2916.4	-2937.9	-2957	-2973.4	-2985.7	-2977.3	-2964.7	-2987.7	-2989.4	-2992	-2993.6	-2991.7	-2983.7	-2964.8	-2942	-2953.1	-2945.1	-2929.8	-2919.9	-2903.1	-2874.7	-2838.6	-2814.4	-2780.2	-2746	-2707.8	-2670.9	-2625.3	-2571.9	-2559.8	-2512.7	-2475.5	-2423.9	-2362.2	-2288	-2251.3	-2152.8	-2054.2	-1967.2	-1869.5	-1799.9	-1700.7	-1608.5	-1512	-1458.8	-1389.1	-1332.6	-1270.8	-1196.7	-1159.5	-1111.9	-1064.9	-1013	-987.12	-951.32	-901.77	-855.09	-816.88	-765.5	-716.74	-668.4	-621.65	-577.62	-543.8	-503.55	-468.52	-431.72	-398.09	-363.6	-334.29	-306.52	-280.47	-254.15	-233.36	-207.19	-187.56	-171.14	-157.59	-144.71	-135.72	-127.36	-115.42	-105.89	-96.016	-87.063	-81.29	-75.574	-69.493	-63.987	-60.644	-56.024	-51.67	-50.01	-48.738	-56.723	-57.756	-57.803	-59.652	-59.87	-60.842	-60.312	-59.23	-58.821	-60.175	-58.56	-56.005	-50.173	-49.979	-51.267	-52.707	-53.344	-55.015	-56.772	-47.06	-43.52	-46.324	-47.353	-40.497	-40.596	-40.126	-39.431	-39.172	-37.692	-30.945	-30.031	-28.294	-26.245	-24.275	-22.836	-20.095	-17.142	-10.035	-6.7726	-5.0413	-4.9559	-2.7469	-1.3924	4.2691	7.6318	12.49	19.164	18.443	19.29	19.124	20.314	20.209	19.383	19.989	19.844	18.772	18.099	19.838	18.613	28.298	16.755	17.575	15.937	15.519	14.643	15.123	15.029	14.429	29.593	34.11	31.116	26.581	23.318	21.196	17.547	15.597	11.578	7.0235	3.0217	-0.0042206	-0.34044	-0.31919	-2.1713	-4.5183	-4.2654	-3.7795	-5.3923	-5.0035	3.64	11.192	18.062	21.21	23.043	23.609	29.522	31.271	32.035	28.817	25.367	24.861	26.788	35.599	33.614	31.17	31.275	29.952	25.256	23.507	22.368	20.355	18.476	23.891	26.555	23.356	20.793	19.149	27.619	27.436	25.91	26.198	26.324	25.001	24.35	26.367	28.908	28.148	25.758	27.506	37.683	35.388	33.184	32.326	31.615	29.055	27.414	26.782	26.007	23.449	21.58	19.941	19.771	17.556	24.46	27.162	30.213	36.334	33.449	41.567	53.767	62.892	68.899	69.337	65.199	60.603	59.085	59.23	60.596	60.681	64.412	62.674	58.502	53.309	46.52	37.979	31.677	27.683	23.519	20.773	19.27	21.888	24.371	25.952	29.555	32.444	29.719	32.495	31.513	26.769	21.503	15.681	19.222	17.572	15.629	16.207	13.448	11.619	9.6646	5.3136	1.6259	-0.95397	-3.922	-8.7491	-12.462	-16.434	-19.615	-22.12	-25.954	-28.493	-29.751	-31.773	-35.519	-39.393	-44.501	-46.157	-51.472	-58.401	-64.566	-71.271	-77.954	-84.645	-92.484	-99.243	-106.01	-112.37	-120.14	-127.46	-133.3	-140.27	-146.72	-154.45	-161.06	-168.23	-173.98	-181.36	-188.8	-195.76	-202.29	-207.72	-214.02	-219.68	-224.77	-229.69	-233.51	-238.45	-243.2	-247.11	-249.15	-252.46	-256.84	-259.29	-261.13	-265.1	-268.81	-270.02	-271.88	-271.88	-272.68	-277.7	-281.74
-2457.4	-2460.5	-2464.8	-2495.9	-2535.3	-2547.2	-2572.5	-2599.1	-2628.7	-2674	-2695.3	-2725.6	-2751	-2772.9	-2783.3	-2820.1	-2832.3	-2864.5	-2892.8	-2915.8	-2935.3	-2952.8	-2951.7	-2950.5	-2947.6	-2949.3	-2966.8	-2957.8	-2962	-2961.5	-2944.5	-2928.4	-2914.5	-2907.6	-2906.4	-2890.3	-2874.4	-2853.4	-2813.5	-2766.9	-2754.1	-2713.8	-2674.9	-2648.4	-2606.2	-2556.8	-2504.8	-2490.5	-2472.4	-2405.1	-2351.2	-2297.6	-2203.1	-2167.6	-2046.7	-1926.4	-1879.6	-1792.9	-1690.3	-1572.1	-1514.9	-1437.2	-1371.5	-1329.4	-1262	-1180.2	-1141.5	-1097.3	-1044.2	-994.72	-968.74	-924.11	-877.7	-833.98	-796.5	-742.34	-692.88	-640.5	-595.31	-559.18	-517.82	-478.09	-440.78	-404.29	-373.31	-332.19	-302.49	-277.68	-252.66	-228.45	-208.28	-186.99	-165.21	-149.68	-138.36	-125.97	-118.72	-106.9	-96.281	-84.297	-76.603	-69.929	-63.264	-59.792	-54.384	-49.779	-47.526	-45.666	-42.316	-42.3	-52.068	-51.018	-48.554	-48.579	-49.203	-46.43	-45.679	-59.404	-59.954	-61.071	-60.136	-59.991	-54.53	-48.075	-48.528	-55.186	-58.064	-57.791	-58.416	-61.543	-53.894	-44.172	-49.407	-53.741	-43.341	-40.811	-42.313	-43.223	-42.058	-41.186	-38.381	-36.673	-35.942	-34.748	-33.102	-29.029	-25.656	-22.322	-18.169	-15.136	-12.043	-10.969	-10.008	-6.8598	-1.0213	0.66792	2.7069	2.5433	3.1012	3.3423	3.7392	10.947	12.65	12.021	11.645	10.73	9.8063	10.298	9.9872	12.327	19.045	10.572	7.8481	7.5447	5.4803	5.4376	6.5045	7.0382	9.2338	16.987	17.577	18.103	16.955	14.668	15.994	15.026	10.751	9.837	3.3571	2.1312	1.142	-0.1528	-1.1825	1.6488	-1.0863	-3.288	-1.3936	-0.84403	-1.4159	4.1015	8.9847	15.656	17.918	19.88	24.17	29.945	27.755	27.976	29.519	27.625	24.419	28.418	32.989	34.947	35.592	33.217	32.184	30.766	26.655	24.324	23.733	23.429	32.467	31.27	31.28	29.309	27.747	26.133	28.397	27.446	25.512	26.199	26.603	25.159	31.524	29.519	38.507	36.459	34.599	32.068	32.63	30.663	28.049	29.41	28.438	26.673	26.46	23.37	30.857	31.885	29.338	31.44	39.067	37.76	43.094	47.787	50.837	56.056	54.198	66.098	76.24	87.471	91.698	92.309	86.918	86.234	84.738	83.453	85.379	88.867	86.811	81.325	75.23	66.627	56.549	47.586	39.096	32.792	30.369	31.342	33.058	33.82	36.351	38.901	40.776	44.124	46.998	45.192	41.749	42.593	42.834	40.499	36.977	35.338	32.845	31.358	28.164	22.494	21.297	19.011	15.385	9.2561	4.8373	0.84294	-2.6417	-7.8119	-10.119	-12.397	-16.254	-21.573	-23.197	-26.557	-30.479	-32.436	-36.729	-42.401	-47.457	-53.805	-62.303	-67.58	-73.995	-81.524	-88.325	-94.239	-101.77	-107.62	-114.3	-121.81	-128.26	-136.29	-144.04	-150.32	-156.82	-164.41	-172.31	-179.95	-186.7	-192.81	-199.36	-204.75	-211.03	-215.44	-220.46	-225.4	-229.72	-234.82	-238.87	-242.86	-247.25	-249.68	-252.9	-256.07	-260.17	-262.9	-265.45	-267.41	-267.82	-272.36	-275.1	-280.02
-2424.4	-2428.7	-2439.6	-2453.7	-2472.4	-2511.7	-2536.1	-2562.2	-2589.9	-2606.1	-2647.1	-2685.7	-2693.3	-2721.8	-2740	-2739.9	-2777.8	-2812.6	-2841.9	-2852.7	-2870.8	-2899	-2913.8	-2929.3	-2927.2	-2925.9	-2915.3	-2904.4	-2916.3	-2931.8	-2903.2	-2893.1	-2878.7	-2870.9	-2851.2	-2836.2	-2838	-2810.5	-2772.2	-2745.7	-2707.5	-2666.8	-2645.1	-2608	-2571.7	-2528.2	-2494.9	-2454.2	-2400.7	-2372.5	-2345.5	-2281.8	-2208	-2098.2	-2065.4	-1965.9	-1870.8	-1775	-1732	-1596.8	-1506	-1414.5	-1372.7	-1293.7	-1254.6	-1166.6	-1133.1	-1079	-1025.7	-971.49	-937.28	-900.44	-848.97	-812.99	-772.36	-712.75	-661.13	-612.61	-570.11	-525.97	-482.19	-444.01	-407.4	-370.93	-344.55	-313.23	-274.89	-249.33	-225.91	-201.74	-181.2	-166.47	-150.27	-133.02	-121.08	-112.23	-102.49	-91.393	-78.365	-65.642	-58.59	-55.057	-53.534	-46.712	-46.462	-40.343	-37.76	-39.576	-39.266	-37.388	-38.934	-42.145	-39.043	-36.275	-38.628	-41.916	-54.051	-55.054	-56.833	-54.819	-54.445	-55.405	-51.601	-46.745	-45.366	-47.295	-47.444	-49.956	-58.983	-63.627	-56.747	-52.488	-52.268	-56	-45.958	-42.894	-43.402	-46.181	-48.205	-45.58	-39.821	-42.003	-41.772	-38.558	-34.673	-31.402	-29.956	-25.907	-23.257	-22.133	-20.414	-15.824	-14.682	-13.169	-9.9869	-8.439	-7.3124	-7.8023	-6.589	-3.5008	4.3191	5.9836	6.771	5.8577	4.4847	3.2799	3.2731	4.946	3.7194	1.9697	3.2106	1.5688	-0.2057	0.071188	-1.3753	-1.5269	0.18115	-0.46783	-0.44114	0.15808	0.75927	0.85795	0.78219	-0.24981	-2.3323	5.3446	5.884	2.1452	0.6313	-1.1532	-1.7827	-2.7615	-3.1523	-2.7391	-0.90874	-2.5958	-2.1547	1.3186	3.2095	2.9757	7.5039	8.5468	13.682	15.582	17.118	18.682	20.586	18.688	18.316	18.967	17.419	23.617	27.6	33.446	33.5	30.947	28.587	28.298	26.998	23.716	21.046	21.845	18.736	16.047	17.304	15.718	14.993	15.761	13.078	13.675	15.561	13.472	12.477	13.811	11.972	8.9598	21.818	25.41	22.529	29.896	26.957	28.765	28.62	26.253	32.406	36.361	38.598	41.359	39.01	39.616	42.974	46.112	48.778	56.834	56.106	60.444	66.037	66.818	73.462	80.547	89.776	101.91	113.47	110.46	110.65	111.95	110.21	106.58	107.78	111.3	110.35	102.42	92.837	83.755	75.039	63.028	51.31	46.513	45.343	43.822	43.384	43.201	42.532	42.642	45.217	52.128	57.507	58.419	57.168	57.86	55.743	55.748	55.34	56.228	55.565	52.813	47.932	41.17	37.434	33.673	32.122	26.32	20.933	15.101	11.471	7.9638	4.1913	0.54114	-3.6834	-6.7653	-11.523	-16.283	-19.704	-23.569	-29.022	-34.385	-40.655	-46.951	-53.009	-56.769	-63.196	-69.415	-75.976	-82.739	-89.952	-96.605	-102.31	-109.7	-118.11	-125.54	-131.97	-139.01	-146.07	-154.05	-162.1	-169.56	-176.77	-183.44	-190.06	-196.22	-201.14	-205.9	-211.43	-217.36	-221.75	-226.68	-229.55	-233.72	-238.99	-244.49	-246.35	-250.38	-253.7	-258.36	-260.56	-263.33	-265.83	-269.2	-275.56	-277.6
