-2210	-2203.8	-2198.1	-2193.3	-2189.3	-2185.3	-2183	-2181.8	-2180.6	-2180.3	-2180.2	-2180.2	-2181.2	-2182.2	-2184.2	-2185.9	-2186.7	-2186.4	-2184.2	-2180.2	-2173.2	-2163.1	-2148.1	-2129.1	-2105.1	-2078.1	-2048.1	-2014.1	-1977.1	-1937	-1893	-1846	-1793.8	-1741.6	-1683.3	-1617.1	-1538.9	-1454.8	-1367.8	-1282.9	-1202.8	-1128.6	-1055.4	-988.59	-930.76	-885.66	-847.41	-813.5	-780.76	-746.67	-710.42	-672.28	-633.15	-595.8	-558.98	-524.28	-490.28	-457.28	-427.28	-398.8	-373.76	-352.2	-332.33	-313.87	-297.39	-285.43	-276.68	-270.96	-267.89	-266.64	-267.64	-269.98	-274.21	-276.95	-279.44	-282.32	-283.98	-284.72	-286.04	-285.88	-285.48	-285.54	-284.92	-282.81	-280.32	-279.07	-279.26	-277.45	-275.69	-272.6	-269.48	-266.17	-262.43	-256.79	-248.17	-238.17	-227.11	-215.02	-202.03	-189.11	-175.24	-161.34	-147.28	-134.24	-122.27	-110.28	-101.23	-93.98	-87.832	-81.685	-76.677	-71.521	-68.551	-66.368	-64.167	-60.769	-56.203	-52.74	-51.595	-53.12	-53.354	-55.928	-58.16	-60.098	-60.021	-59.525	-57.759	-55.224	-51.704	-46.738	-42.768	-40.591	-37.763	-36.507	-36.656	-37.555	-39.414	-41.147	-41.991	-42.955	-43.309	-41.716	-39.726	-36.535	-33.635	-30.023	-27.191	-22.707	-20.3	-17.691	-16.912	-16.581	-17.223	-18.898	-19.504	-21.124	-22.644	-24.157	-24.579	-26.185	-28.179	-30.351	-31.028	-31.815	-32.206	-32.885	-32.962	-33.303	-33.079	-31.185	-29.753	-28.555	-26.571	-24.851	-22.737	-20.484	-19.742	-18.813	-17.959	-17.291	-18.057	-17.742	-16.527	-14.833	-14.527	-12.887	-12.247	-9.6113	-8.6706	-7.5664	-7.6667	-6.8517	-5.53	-4.3886	-2.5408	-0.60898	3.0139	5.4887	6.8379	8.1501	9.9967	10.506	9.2513	6.8145	3.4339	-0.78737	-6.9328	-11.974	-16.064	-19.744	-23.633	-24.826	-25.86	-24.387	-24.455	-21.722	-16.692	-12.296	-7.7558	-2.7386	0.88608	6.1827	10.975	14.758	15.71	15.953	16.757	15.638	12.361	8.5312	3.0462	-3.3404	-8.7178	-15.375	-21.317	-27.009	-32.905	-40.136	-47.206	-52.65	-57.78	-63.474	-69.425	-74.265	-78.497	-81.706	-85.209	-88.956	-91.363	-93.001	-95.011	-97.717	-99.307	-101.21	-102.25	-103.28	-103.6	-103.45	-102.95	-102.3	-101.88	-103.14	-103.09	-104.62	-106.54	-110.2	-114.36	-119.81	-126.26	-132.66	-139	-144.94	-150.78	-156.13	-161.46	-166.07	-169.64	-173.18	-177.04	-179.42	-182.58	-186.42	-188.52	-191.6	-193.46	-195.09	-196.43	-196.37	-196.25	-195.87	-196.22	-194.67	-193.51	-191.11	-188.75	-185.61	-182.06	-176.74	-172.08	-166.93	-162.07	-156.2	-151.03	-146.76	-142.8	-139.62	-137.53	-136.23	-134.81	-133.05	-132.05	-130.38	-129.73	-127.76	-126.62	-125.16	-124.35	-123.17	-121.09	-120.69	-120.01	-119.33	-118.71	-117.34	-116.51	-116.95	-116.65	-116.53	-116.31	-115.74	-115.5	-115.6	-115.54	-116.04	-115.81	-115.98	-116.03	-116.24	-116.89	-117.83	-118.93	-119.73	-120.03	-120.73	-122.33	-123.73	-124.69	-126.65	-128.07	-131.7	-135.39	-140.07	-146.26	-153.7	-162.44	-173.38	-184.3	-196	-206.3	-216.95
-2195.8	-2191.7	-2187.4	-2182.9	-2179.4	-2177	-2175.8	-2175.8	-2176.8	-2178.8	-2180.8	-2182.8	-2185.8	-2189.8	-2192.8	-2196.5	-2198.3	-2197.1	-2193.9	-2187.8	-2177.8	-2162.8	-2142.8	-2118.8	-2090.9	-2059.9	-2025.9	-1988.9	-1950.9	-1909.9	-1865.9	-1818.9	-1767.8	-1712.6	-1653.4	-1585.2	-1511.1	-1429.3	-1346	-1263.6	-1189.3	-1121.4	-1057.8	-997.66	-944.28	-898.31	-860.76	-826.76	-792.3	-754.28	-715.5	-676.34	-637.12	-601.24	-566.28	-531.28	-497.08	-464.84	-433.76	-405.98	-379.08	-353.83	-330.8	-310.74	-294.8	-282.8	-273.58	-268.33	-266.29	-266.76	-268.76	-270.31	-273.28	-276.28	-279.53	-280.78	-281.03	-281.15	-280.78	-281.57	-282.84	-284.03	-283.73	-282.28	-282.04	-282.1	-282.55	-282.88	-281.77	-279.23	-277.31	-275.84	-274.44	-269.52	-262.43	-253.34	-243.28	-232.23	-221.18	-209.43	-197.81	-183.94	-170.64	-159.57	-147.61	-136.67	-128.74	-121.61	-114.51	-107.43	-101.38	-97.27	-93.176	-91.072	-90.048	-87.159	-83.82	-81.394	-80.788	-81.176	-81.754	-83.691	-83.478	-83.067	-82.607	-79.741	-77.205	-71.97	-66.375	-60.361	-55.218	-53.56	-51.791	-51.312	-50.136	-50.874	-53.5	-55.583	-57.83	-59.3	-59.459	-57.316	-53.205	-49.042	-45.153	-41.159	-36.918	-32.53	-29.64	-26.741	-24.821	-23.894	-24.482	-26.093	-26.619	-26.665	-26.919	-28.645	-29.397	-30.017	-30.689	-32.557	-33.414	-33.804	-33.453	-33.244	-33.638	-33.663	-32.37	-29.797	-28.425	-26.622	-24.665	-22.401	-20.746	-18.123	-16.184	-15.132	-15.413	-14.763	-14.247	-13.28	-13.334	-13.465	-12.789	-12.518	-12.217	-12.849	-11.762	-11.704	-11.467	-12.913	-12.653	-10.452	-8.2763	-6.6966	-5.1294	-2.6815	-0.22646	1.0484	2.8657	2.1719	0.93586	-1.3416	-5.5574	-9.1305	-15.58	-20.791	-25.033	-28.372	-30.43	-31.63	-30.991	-29.823	-26.718	-21.655	-16.231	-9.6498	-3.4975	2.4871	7.4646	14.049	19.652	24.338	27.593	29.098	28.721	28.886	27.227	22.89	17.188	11.533	6.0991	1.2145	-5.817	-12.573	-18.639	-25.528	-31.889	-39.118	-45.141	-50.621	-56.572	-63.187	-67.952	-72.212	-75.909	-79.279	-82.955	-85.109	-88.209	-89.513	-90.529	-91.546	-92.438	-93.011	-91.683	-90.955	-89.258	-87.935	-87.96	-86.77	-87.699	-89.686	-91.581	-95.636	-100.68	-107.09	-114.59	-121.85	-128.61	-135.63	-143.14	-149.47	-155.32	-160.74	-165.19	-169.35	-171.81	-175.07	-179.15	-183.18	-186	-189.33	-192.34	-194.71	-197.26	-199.12	-200.98	-202.13	-202.08	-202.75	-202.42	-201.38	-200.45	-197.12	-193.31	-188.87	-183.86	-178.16	-172.12	-166.39	-159.54	-153.65	-149.71	-145.5	-142.09	-139.13	-138.13	-135.35	-134.49	-133.15	-131.31	-129.29	-128.38	-126.81	-125.74	-123.91	-123.17	-122.26	-120.57	-119.92	-119.57	-118.76	-118.1	-117.8	-117.64	-117.48	-117.24	-116.73	-116.43	-116.49	-116.53	-116.24	-116.04	-115.87	-115.89	-115.88	-116.29	-117.11	-118.1	-117.66	-118.23	-119.3	-120.7	-122.13	-124.13	-125.01	-126.4	-128.96	-132.51	-136.2	-141.53	-147.77	-156.46	-166.35	-176.17	-188.03	-198.49	-208.78
-2184.8	-2182.4	-2180	-2176.7	-2175.5	-2174.3	-2174.2	-2175.2	-2178.2	-2181.2	-2186.2	-2190.2	-2196.2	-2201.2	-2206.2	-2210	-2210.8	-2209.6	-2203.3	-2193.2	-2179.2	-2158.2	-2131.2	-2101.2	-2068.2	-2032.2	-1994.2	-1955.2	-1914.2	-1873.2	-1829.2	-1782.2	-1730.1	-1674.8	-1615.6	-1551.4	-1481.1	-1404.7	-1326.4	-1251.7	-1184.8	-1125.8	-1067.5	-1013.6	-963.8	-916.79	-875.47	-839.28	-802.45	-763.68	-721.59	-680.28	-641.24	-603.99	-570.8	-536.8	-503.8	-471.8	-440.8	-410.8	-381.82	-356.07	-331.9	-307.51	-289.28	-277.28	-268.32	-263.57	-262.76	-262.56	-264.33	-266.58	-269.8	-271.8	-273.74	-273.49	-272.23	-271	-270.23	-271.45	-273.28	-274.28	-275.37	-276.2	-275.98	-278.18	-280.54	-281.06	-280.75	-280.05	-279.55	-279.71	-279.66	-276.62	-271.57	-263.5	-254.43	-244.55	-235.2	-224.64	-212.45	-200.01	-187.93	-177.84	-168.85	-160.99	-154.31	-148.21	-143.02	-138.01	-132.96	-128.98	-124.87	-123.04	-121.27	-119.2	-116.07	-113.53	-112.99	-113.39	-113.23	-113.04	-111.54	-109.3	-105.3	-101.1	-95.536	-88.887	-80.387	-73.913	-68.181	-65.443	-63.938	-64.038	-63.031	-63.653	-66.945	-70.403	-72.88	-73.972	-72.985	-70.812	-66.505	-62.296	-57.404	-53.296	-48.003	-43.814	-40.545	-36.62	-34.755	-33.957	-32.832	-33.278	-33.671	-34.2	-33.291	-33.611	-33.527	-34.431	-35.002	-35.156	-34.795	-35.616	-35.545	-35.47	-34.409	-33.174	-31.602	-29.707	-27.801	-24.451	-22.178	-19.411	-17.739	-15.114	-11.84	-9.9707	-8.3949	-7.9866	-7.9213	-6.9064	-6.8384	-6.7963	-7.3391	-7.5936	-8.8825	-10.392	-11.968	-13.115	-14.359	-15.135	-15.676	-16.052	-14.306	-12.448	-10.825	-9.3267	-7.0574	-4.2947	-4.2022	-4.0848	-5.9518	-9.0502	-13.722	-18.988	-24.927	-30.69	-34.51	-36.151	-37.251	-36.559	-34.978	-32.564	-27.198	-20.102	-12.968	-6.6849	-0.67022	5.6213	11.737	18.329	24.131	28.997	33.832	36.794	37.686	36.692	35.627	33.332	29.043	24.487	19.959	14.2	8.3879	1.8088	-4.905	-11.627	-18.185	-24.324	-30.693	-38.131	-44.552	-49.69	-55.386	-60.964	-66.453	-69.849	-73.741	-77.581	-80.268	-81.563	-82.079	-81.971	-82.864	-81.709	-79.711	-77.944	-74.768	-73.743	-72.754	-71.64	-71.333	-72.826	-76.01	-79.933	-85.914	-92.919	-100.93	-108.92	-118.39	-126.61	-133.52	-141.96	-148.42	-154.74	-158.48	-161.6	-165.59	-167.65	-171.37	-175.71	-179.89	-183.38	-187.14	-190.29	-194.15	-198.05	-201.01	-202.92	-205.39	-207.69	-208.56	-208.86	-208.02	-206.75	-203.51	-198.45	-193.47	-187.66	-181.09	-174.07	-167.32	-160.62	-154.57	-149.23	-145.1	-142.26	-140.23	-137.87	-136.41	-134.61	-132.86	-131.16	-129.63	-128.63	-126.58	-125.96	-124.43	-123.45	-122.43	-120.9	-120.58	-119.76	-119.02	-118.79	-118.61	-118.17	-117.79	-116.41	-116.33	-116.37	-116.44	-115.98	-115.61	-115.63	-114.65	-114.61	-115.15	-115.92	-116.27	-116.69	-117.66	-118.87	-120.28	-121.46	-122.45	-123.29	-124.57	-126.06	-128.61	-132.24	-136.58	-142.79	-149.6	-158.31	-167.98	-178.94	-189.66	-199.9
-2177.7	-2177.5	-2176.3	-2174.9	-2173.4	-2173	-2173.8	-2176.8	-2180.8	-2185.8	-2191.8	-2197.8	-2204.8	-2211.8	-2217.8	-2220.6	-2220.4	-2216.2	-2206.9	-2192.8	-2172.8	-2144.8	-2114.8	-2078.8	-2038.8	-1997.8	-1955.8	-1913.8	-1872.8	-1831.8	-1789.8	-1737.8	-1686.8	-1634.6	-1578.3	-1518.1	-1452.9	-1384.8	-1313.8	-1247.6	-1189.6	-1136.8	-1084.8	-1033.6	-983.35	-934.11	-888.92	-846.15	-805.37	-763.13	-718.89	-676.8	-637.8	-600.93	-566.84	-533.8	-501.8	-468.91	-438.16	-407.28	-378.11	-348.64	-323.28	-299.4	-281.65	-267.8	-259.8	-254.8	-252.69	-252.8	-253.8	-255.68	-256.43	-258.28	-258.28	-257.12	-254.9	-251.99	-250.28	-250.41	-252.66	-253.78	-254.55	-256.28	-258.27	-260.14	-263.75	-266.76	-269.24	-269.11	-269.85	-271.99	-273.21	-273.06	-269.8	-263.85	-257.37	-249.84	-241.99	-231.64	-220.31	-209.22	-199.19	-191.39	-185.62	-179.79	-175.71	-171.59	-168.46	-165.38	-162.54	-158.8	-156.13	-153.29	-150.17	-147.98	-144.92	-143.27	-141.84	-141.85	-141.65	-140.48	-137.38	-135.36	-128.15	-122.97	-116.57	-107.94	-99.466	-93.217	-87.86	-84.099	-81.189	-81.469	-80.685	-81.982	-85.214	-87.608	-89.905	-91.481	-91.397	-88.97	-84.655	-80.923	-76.071	-70.923	-65.662	-61.198	-55.792	-50.916	-48.361	-46.4	-44.056	-43.209	-42.732	-40.823	-39.921	-39.638	-38.573	-39.188	-38.342	-37.717	-38.12	-37.983	-37.833	-36.48	-35.131	-33.689	-31.755	-28.884	-25.552	-22.194	-19.239	-16.575	-13.434	-10.036	-6.4869	-4.0121	-1.5231	-0.31913	0.70465	1.8903	3.3243	3.551	2.3404	0.445	-1.7221	-4.179	-6.9735	-10.358	-12.82	-15.214	-16.692	-18.351	-19.668	-17.84	-15.662	-13.719	-12.679	-11.236	-8.8321	-8.5341	-11.419	-15.42	-21.074	-26.676	-31.974	-36.357	-39.009	-41.093	-40.935	-39.066	-34.395	-28.763	-21.766	-13.669	-6.5595	0.44941	5.7433	10.939	17.305	22.731	27.971	32.953	37.274	39.442	41.086	41.364	41.332	39.357	38.104	34.711	29.986	25.305	19.973	14.19	8.2087	1.585	-5.2721	-11.59	-17.874	-24.546	-32.077	-38.822	-45.074	-50.751	-56.345	-60.743	-65.504	-69.57	-71.017	-72.294	-72.87	-72.961	-71.627	-70.47	-67.487	-64.908	-62.012	-59.232	-56.683	-55.406	-55.355	-56.541	-58.634	-63.856	-70.174	-77.781	-86.301	-96.217	-107.04	-115.92	-124.42	-131.39	-138.36	-144.1	-148.71	-150.82	-153.28	-155.32	-158.07	-163.32	-168.1	-172.04	-176.66	-181.14	-186.64	-191.77	-196.92	-201.33	-203.79	-207.03	-210.58	-213.23	-213.31	-212.48	-210.6	-205.79	-199.95	-194.47	-188.14	-180.26	-173.18	-165.37	-158.37	-153.61	-148.6	-145.59	-142.85	-140.8	-138.58	-136.61	-134.85	-133.44	-131.97	-130.1	-129.04	-127.36	-126.73	-124.78	-123.76	-122.24	-121.74	-120.76	-120	-118.76	-118.55	-118.06	-117.32	-117.22	-116.24	-116.29	-116	-115.47	-114.03	-114.15	-114.46	-114.66	-115.12	-115.94	-116.38	-116.61	-117.39	-117.48	-118.65	-119.83	-120.87	-121.6	-122.69	-124.16	-126.7	-129.24	-132.65	-138.02	-144.77	-152.57	-161.18	-170.96	-181.78	-191.14
-2173.8	-2175.6	-2176.1	-2174.8	-2174.6	-2174.3	-2175.2	-2178.2	-2182	-2187.8	-2194.8	-2202.8	-2210.8	-2217.8	-2223.8	-2225.7	-2223.4	-2216.2	-2203	-2183.8	-2157.8	-2127.8	-2089.8	-2047.8	-2002.8	-1956.8	-1911.8	-1868.8	-1827.8	-1787.8	-1742.8	-1697.6	-1649.4	-1600.1	-1546.9	-1490.8	-1431.6	-1368.3	-1304.4	-1243.8	-1188.7	-1138.3	-1088	-1037.8	-986.8	-936.82	-886.85	-838.8	-793.8	-748.8	-704.03	-661.28	-623.37	-588.15	-555.01	-522.25	-490.28	-459.28	-427.09	-395.84	-365.58	-337.73	-310.8	-288.8	-270.8	-256.8	-247.97	-242.02	-237.65	-234.37	-232.28	-232.28	-232.46	-231.68	-229.46	-227.24	-223.46	-219.71	-217.8	-217.8	-217.8	-218.5	-219.11	-219.85	-221.8	-225.8	-231.8	-237.84	-241.79	-244.79	-248.79	-252.81	-257.78	-260.77	-259.77	-256.78	-252.18	-246.16	-239.96	-232.72	-223.77	-214.95	-206.15	-199.36	-193.29	-189.07	-185.68	-182.68	-181.07	-178.33	-175.58	-173.93	-172.09	-168.96	-166.72	-164.78	-161.42	-160.39	-159.34	-159.09	-158.74	-159.04	-158.38	-156.01	-154.59	-149.36	-143.25	-137.86	-131.33	-124.96	-119.89	-115.6	-112.63	-108.88	-109.53	-109.86	-111.02	-111.34	-113.83	-114	-114.19	-111.95	-109.08	-105.13	-100.48	-95.51	-89.888	-83.333	-77.515	-70.984	-65.868	-60.462	-56.602	-53.68	-50.358	-48.671	-46.503	-45.317	-43.521	-42.924	-42.324	-41.729	-40.686	-38.941	-38.523	-37.205	-36.105	-34.079	-30.891	-27.597	-24.234	-20.283	-16.408	-12.358	-8.1857	-4.1999	-1.1436	1.9686	5.2988	8.5321	11.168	12.959	14.002	14.13	13.821	11.182	7.6291	5.2874	0.94998	-3.6187	-8.183	-12.448	-15.737	-17.657	-19.43	-20.147	-18.567	-16.989	-15.741	-14.015	-12.877	-11.15	-11.761	-16.219	-19.081	-21.666	-25.818	-28.589	-29.015	-28.946	-28.148	-24.826	-17.578	-12.051	-6.3009	1.1666	8.515	13.327	17.524	21.912	26.4	30.055	34.059	37.973	40.337	41.466	42.357	43.017	43.968	43.562	42.48	40.852	38.369	34.311	29.819	25.24	19.918	13.458	6.6787	-0.33536	-7.5135	-14.197	-21.074	-28.727	-35.8	-41.262	-46.908	-51.954	-56.837	-60.182	-62.504	-63.345	-63.47	-63.178	-60.853	-58.232	-54.745	-51.544	-47.961	-44.812	-41.895	-38.61	-38.438	-39.977	-42.704	-47.02	-52.961	-62.082	-72.228	-82.916	-94.215	-102.87	-111.33	-118.71	-126.56	-131.75	-134.03	-134.97	-134.85	-133.55	-135.76	-140.15	-144.97	-150.09	-155.4	-161.89	-169.32	-178.07	-186.32	-191.58	-197.36	-202.93	-208.37	-211.16	-214.14	-214.73	-212.81	-209.47	-203.84	-198.4	-191.55	-183.85	-175.43	-166.61	-160.47	-155.05	-149.93	-146.1	-143.47	-141.59	-139.54	-137.7	-135.94	-134.7	-133.32	-131.6	-129.58	-129	-127.09	-126.13	-124.16	-123.61	-123.12	-121.19	-120.22	-119.74	-118.82	-118.48	-117.69	-117.38	-116.17	-115.63	-115.24	-115.11	-113.91	-113.96	-114.66	-114.94	-115.29	-114.87	-115.53	-115.7	-116.23	-117.11	-118.13	-119.19	-120.33	-121.04	-122	-122.58	-124.81	-126.27	-130.03	-135.39	-140.97	-147.77	-156.34	-164.95	-174.8	-183.01
-2176	-2179.8	-2181.6	-2181.4	-2180.1	-2178.9	-2178.8	-2180.8	-2184.8	-2190.8	-2197.6	-2204.6	-2212.6	-2218.6	-2222.6	-2222.4	-2217.2	-2206	-2187.7	-2163.5	-2132.5	-2094.5	-2049.5	-2001.5	-1950.5	-1899.5	-1850.4	-1805.4	-1763.4	-1724.2	-1684	-1643.8	-1599.8	-1553.8	-1505.7	-1453.3	-1397.5	-1339.8	-1279.8	-1222.4	-1169.1	-1119.9	-1070	-1019.2	-968.23	-916.01	-863.91	-813.16	-764.4	-716.64	-671.8	-630.68	-594.37	-559.28	-526.23	-494.99	-463.8	-433.8	-403.8	-373.8	-344.8	-318.8	-293.8	-273.05	-258.29	-245.54	-234.35	-225.73	-218.42	-212.53	-208.78	-206.8	-203.8	-197.8	-192.77	-187.8	-182.8	-177.8	-173.8	-171.77	-170.3	-170.06	-169.84	-170.8	-173.8	-178.8	-185.8	-192.8	-199.8	-205.8	-211.8	-219.8	-227.79	-234.79	-237.79	-237.79	-235.78	-233.77	-230.76	-226.76	-220.76	-213.89	-207.08	-200.87	-196.28	-191.88	-189.12	-186.51	-184.94	-183.34	-181.59	-179.65	-177.69	-175.81	-173.85	-171.76	-169.66	-168.36	-168.21	-167.95	-168.27	-168.42	-167.32	-165.11	-162.83	-158.49	-154.35	-150.35	-146.24	-142.06	-137.7	-135.4	-134.28	-133.7	-134.01	-134.38	-134.6	-134.8	-136.96	-137.32	-136.57	-136.05	-134.03	-130.26	-126.24	-121.13	-113.87	-106.94	-99.139	-90.963	-82.96	-75.905	-69.934	-63.608	-58.988	-55.382	-52.878	-49.947	-47.46	-45.97	-44.68	-42.628	-42.167	-41.501	-39.818	-38.784	-36.995	-34.58	-30.93	-26.276	-22.265	-17.398	-13.498	-8.6304	-3.4301	0.86691	5.8565	9.6164	13.638	17.403	21.004	23.573	24.824	25.398	25.031	23.654	20.015	15.561	11.213	5.8912	-0.11788	-5.5188	-11.254	-14.963	-16.746	-18.793	-20.103	-19.655	-17.255	-14.609	-12.624	-11.867	-10.913	-9.473	-8.1225	-8.0746	-10.599	-9.9728	-7.6544	-2.6876	0.94101	5.4562	10.326	14.579	21.037	26.841	32.147	34.904	34.968	35.512	37.563	38.757	39.826	41.213	41.87	41.911	41.959	42.45	43.643	44.163	44.371	44.119	42.553	40.103	37.523	33.163	28.765	23.902	17.604	10.024	1.6564	-5.8859	-13.643	-21.041	-27.553	-34.151	-40.292	-44.78	-47.482	-51.767	-53.232	-54.951	-54.797	-52.49	-50.053	-46.726	-42.874	-37.847	-33.645	-30.004	-25.906	-22.6	-21.177	-21.801	-24.208	-28.732	-35.738	-44.695	-55.214	-67.976	-79.291	-88.868	-96.893	-105.34	-112.07	-116	-115.83	-114.14	-111.89	-107.5	-106.66	-108.45	-111.93	-117.39	-124.63	-134.73	-143.57	-153.78	-165.91	-177.18	-186.01	-193.1	-199.81	-205.24	-209.27	-212.25	-211.82	-208.35	-203.71	-197.96	-192.19	-184.1	-174.77	-166.5	-159.53	-154.11	-149.47	-145.66	-142.93	-141.25	-139.24	-137.58	-136.25	-134.89	-133.27	-131.33	-129.88	-129.21	-127.38	-126.53	-124.89	-124.06	-123.54	-121.65	-120.69	-120.22	-119.24	-118.9	-118.17	-117.88	-116.65	-115.52	-114.85	-114.26	-114.32	-114.4	-114.82	-115.18	-114.24	-114.78	-115.44	-115.68	-115.95	-116.8	-117.79	-118.82	-118.66	-119.54	-120.68	-122.3	-123.52	-125.76	-128.39	-132.79	-138.02	-143.64	-151.25	-158.86	-167.5	-175.69
-2186.1	-2191.8	-2194.6	-2194.4	-2193.2	-2189.9	-2186.7	-2186.5	-2187.4	-2191.4	-2196.4	-2201.4	-2207.4	-2211.2	-2212	-2208.7	-2198.5	-2182.3	-2158.1	-2125.8	-2086.8	-2040.8	-1988.8	-1933.8	-1877.8	-1821.8	-1768.8	-1719.8	-1674.8	-1637.8	-1599.8	-1564.8	-1523.8	-1480.7	-1435.8	-1387.8	-1337.8	-1284.8	-1226.6	-1172.4	-1117.3	-1067.6	-1016.8	-965.53	-914.31	-862.53	-809.76	-757.8	-707.8	-661.59	-620.35	-583.11	-546.87	-512.8	-480.8	-450.88	-422.8	-395.8	-368.8	-339.9	-314.14	-288.39	-264.63	-244.8	-228.8	-214.49	-201.97	-190.8	-180.8	-173.8	-169.8	-166.8	-162.8	-157.8	-152.8	-146.8	-139.8	-133.8	-127.8	-123.63	-120.41	-118.19	-115.97	-116.8	-118.8	-123.8	-129.8	-138.8	-148.8	-158.8	-167.8	-178.8	-188.8	-198.8	-206.8	-211.8	-214.8	-215.79	-214.79	-214.78	-211.78	-207.77	-202.68	-198.25	-194.03	-190.81	-187.93	-185.32	-183.73	-182.15	-180.53	-179.62	-177.74	-175.77	-173.66	-172.41	-171.14	-170.17	-170.19	-170.28	-170.27	-170.18	-168.97	-168.03	-164.64	-160.74	-156.77	-153.95	-151.18	-147.69	-145.17	-143.16	-143.35	-144.02	-146.13	-146.37	-146.77	-147.08	-148.28	-148.55	-149.01	-149.35	-148.86	-147.73	-143.82	-138.82	-133.02	-125.02	-116.05	-107.12	-98.446	-88.359	-79.204	-72.585	-66.989	-61.936	-56.455	-53.893	-51.405	-49.376	-47.21	-45.719	-45.223	-43.603	-42.181	-40.686	-37.179	-33.635	-30.225	-24.815	-19.436	-14.591	-9.7511	-4.6836	1.5847	6.953	11.715	16.619	20.834	25.935	29.341	32.614	34.93	36.174	35.62	35.165	32.752	28.541	23.116	17.197	10.904	4.2283	-2.9141	-8.6138	-13.046	-16.159	-18.108	-18.715	-18.435	-16.294	-13.996	-10.82	-8.8643	-5.8264	-2.2015	-0.41228	-0.16967	1.8656	6.8335	12.879	18.475	23.845	27.914	33.397	39.063	44.439	47.626	48.924	48.206	46.32	44.551	44.396	43.592	42.569	41.377	41.469	41.151	40.386	40.133	41.129	42.565	42.907	42.526	42.189	39.586	38.13	34.346	30.121	23.737	16.312	8.9994	1.0071	-7.6596	-15.155	-21.646	-27.262	-33.125	-37.514	-40.91	-43.976	-45.018	-45.895	-45.372	-43.345	-40.478	-35.405	-30.738	-25.206	-19.769	-14.09	-10.118	-6.4538	-4.8848	-4.8424	-6.4544	-11.004	-19.183	-28.879	-39.255	-50.393	-63.232	-73.505	-81.251	-87.603	-92.51	-93.527	-91.848	-88.83	-85.317	-80.234	-77.849	-79.612	-82.575	-89.573	-99.205	-110.57	-120.91	-131.86	-144.14	-155.89	-168.04	-177.35	-185.2	-191.08	-196.24	-200.55	-200.85	-198.71	-195.55	-190.62	-184.83	-177.26	-169.17	-161.77	-154.8	-149.79	-146.19	-143.22	-141.56	-139.92	-137.98	-136.44	-135.12	-133.66	-131.96	-130.3	-130.02	-128.4	-127.63	-127.23	-125.42	-124.45	-122.61	-121.87	-121.18	-119.73	-119.64	-119.08	-118.47	-117.29	-117.17	-116.27	-114.84	-114.78	-114.78	-114.63	-114.76	-114.9	-114.23	-114.71	-115.34	-115.67	-115.93	-116.63	-116.51	-117.16	-118.05	-119.21	-119.58	-120.95	-122.25	-124.36	-127.66	-130.87	-135.06	-140.5	-146.12	-153.83	-161.16	-167.35
-2198.1	-2205.9	-2209.6	-2211.4	-2210.2	-2207	-2202.8	-2198.8	-2196.8	-2196.8	-2196.8	-2197.6	-2198.4	-2197.2	-2192	-2182.8	-2167.5	-2143.3	-2111.1	-2069.9	-2020.8	-1965.8	-1906.8	-1844.8	-1780.8	-1719.8	-1661.8	-1607.8	-1558.8	-1517.8	-1482.8	-1444.8	-1404.8	-1364.8	-1322.8	-1280.8	-1236.8	-1190.8	-1139.7	-1085.8	-1031.8	-980.8	-930.8	-881.8	-832.8	-782.7	-731.46	-680.23	-631.99	-591.8	-555.8	-521.81	-487.05	-452.29	-421.18	-392.97	-367.01	-343.25	-317.49	-291.73	-265.8	-242.8	-221.8	-203.8	-188.36	-173.9	-161.8	-150.8	-142.8	-136.8	-132.8	-128.8	-124.8	-119.8	-113.8	-105.8	-97.8	-88.8	-81.8	-74.747	-68.527	-63.308	-60.09	-58.872	-59.8	-63.8	-69.8	-77.8	-87.8	-98.799	-111.8	-125.8	-139.86	-153.8	-166.8	-177.8	-185.8	-192.8	-196.79	-199.79	-200.79	-198.79	-196.67	-192.44	-189.21	-185.99	-182.77	-181.09	-178.48	-177.9	-177.32	-175.25	-173.99	-172.63	-171.81	-170.19	-170.24	-169.28	-169.38	-169.22	-169	-170.05	-170.29	-168.19	-165.19	-160.12	-156.29	-152.39	-149.15	-144.94	-142.9	-140.99	-141.02	-142.66	-145.02	-147.23	-148.55	-149.12	-149.49	-149.67	-151.03	-151.72	-151.2	-150.58	-147.5	-143.91	-138.18	-131.19	-123.64	-113.94	-104.81	-94.762	-85.167	-77.584	-70.543	-65.074	-61.125	-58.341	-55.521	-52.613	-51.036	-49.33	-48.24	-46.611	-44.164	-41.544	-37.852	-34.399	-30.079	-24.774	-18.357	-12.124	-6.3584	-0.21823	5.3082	11.425	16.601	22.536	27.529	32.485	36.575	39.784	43.048	44.32	45.775	45.896	44.595	41.275	36.114	28.862	22.034	14.362	6.8878	-1.1415	-8.1505	-13.248	-15.695	-17.623	-18.573	-18.672	-15.265	-12.549	-8.9356	-6.9993	-5.0488	-1.9791	1.135	5.133	9.8145	16.523	22.315	28.36	34.603	40.067	45.066	49.398	52.482	53.534	52.307	49.93	49.241	46.722	43.944	42.28	40.782	38.862	37.672	36.329	36.397	36.312	37.787	39.203	40.682	40.465	39.97	38.48	36.158	33.416	27.968	21.692	14.682	5.9715	-1.919	-9.3049	-16.006	-22.061	-26.446	-29.769	-34.189	-36.649	-37.311	-38.425	-36.535	-34.628	-30.697	-26.293	-20.531	-15.005	-9.8778	-4.3249	0.95383	4.1808	3.295	2.0176	0.50228	-3.5324	-8.7541	-16.205	-24.675	-36.079	-45.799	-50.212	-56.756	-62.202	-65.485	-66.309	-65.099	-63.895	-61.153	-59.363	-58.645	-60.145	-65.821	-73.834	-84.086	-93.953	-104.69	-113.79	-123.81	-134.43	-145.74	-153.69	-161.95	-167.49	-171.56	-174.98	-176.55	-175.94	-173.69	-169.8	-165.83	-161.65	-156.79	-150.49	-146.23	-142.98	-140.66	-138.84	-137.2	-136.61	-135.54	-134.2	-132.71	-131.24	-130.83	-129.34	-129.21	-127.62	-126.77	-126.12	-124.35	-123.37	-122.65	-121.03	-120.63	-120.06	-119.79	-118.29	-117.68	-117.5	-117.34	-116.04	-115.62	-115.46	-115.45	-115.13	-114.77	-114.89	-114.35	-114.92	-115.35	-115.62	-115.96	-116.67	-116.55	-117.11	-117.91	-118.15	-119.44	-120.44	-121.68	-123.72	-125.65	-129.04	-132.54	-136.96	-142.57	-148.59	-153.85	-160.32
-2208.1	-2216.9	-2222.6	-2226.4	-2227.2	-2225	-2219.8	-2214.8	-2208.8	-2203.8	-2198.8	-2192.7	-2185.5	-2174.3	-2160.3	-2141.3	-2116.1	-2082.9	-2039.5	-1988.1	-1930.8	-1866.8	-1800.8	-1732.8	-1664.8	-1597.8	-1535.8	-1477.8	-1423.8	-1375.8	-1331.8	-1291.8	-1250.8	-1212.8	-1174.8	-1136.8	-1097.8	-1058.7	-1015.8	-968.82	-919.05	-870.1	-821.65	-774.32	-729.28	-684.28	-637.02	-592.8	-550.94	-515.18	-479.41	-444.65	-409.71	-376.49	-344.37	-317.61	-292.8	-269.8	-247.8	-227.8	-209.8	-191.8	-175.57	-161.35	-148.13	-136.91	-126.8	-117.8	-109.8	-102.98	-97.8	-93.8	-87.8	-81.954	-74.913	-65.8	-55.8	-46.933	-38.042	-28.826	-19.649	-12.546	-8.5763	-5.1526	-3.8	-5.9025	-11.151	-18.087	-28.871	-42.893	-58.143	-75.218	-93.002	-110.8	-128.8	-145.8	-159.8	-171.89	-179.8	-184.8	-187.8	-188.8	-187.8	-185.61	-183.38	-180.16	-177.95	-174.81	-173.22	-172.55	-171.44	-170.07	-168.85	-167.21	-166.59	-164.98	-164.36	-164.38	-163.14	-163.26	-163.6	-164.68	-164.59	-162.58	-157.53	-152.57	-147.5	-141.26	-135.99	-132.32	-129.05	-126.96	-127.38	-129.65	-135.46	-139.25	-142.82	-145.07	-146.63	-148.06	-149.74	-150.45	-150.76	-149.01	-146.87	-141.13	-135.99	-129.36	-122.15	-114.25	-105.17	-94.063	-84.643	-78.092	-71.983	-68.118	-63.948	-61.018	-58.1	-55.495	-53.82	-52.825	-50.545	-47.926	-45.59	-43.142	-38.644	-33.677	-29.176	-23.082	-17.001	-9.5817	-3.0534	3.4906	9.5282	15.679	20.85	27.045	32.183	37.45	41.051	44.979	47.521	51.068	53.302	54.501	53.854	51.68	46.659	40.398	33.114	24.26	15.704	6.5269	-2.5792	-8.8377	-14.084	-16.871	-18.937	-18.095	-17.533	-15.527	-12.559	-9.2886	-7.1262	-4.313	-0.25288	5.7451	11.366	17.606	23.813	30.807	36.427	41.963	46.728	49.839	52.604	53.159	52.732	50.338	48.01	44.674	42.365	40.08	37.676	34.622	32.151	31.227	30.555	31.778	32.139	33.631	34.878	35.169	36.76	35.931	35.287	32.65	29.271	24.586	18.075	11.644	3.7242	-3.0556	-9.6081	-15.633	-19.103	-23.171	-26.108	-28.423	-30.736	-31.02	-28.698	-25.899	-22.022	-16.412	-11.182	-6.149	1.0867	7.0327	12.662	15.135	15.299	12.537	9.0465	6.4044	3.4457	-2.1222	-8.1904	-16.143	-23.752	-27.212	-28.105	-31.434	-35.704	-38.28	-39.658	-42.357	-43.7	-43.977	-47.28	-52.008	-59.061	-65.738	-74.549	-83.259	-89.732	-97.347	-104.73	-113.93	-120.76	-128.09	-133.13	-136.5	-139.42	-142.13	-144.58	-144.64	-144.78	-143.77	-141.55	-140.39	-139.14	-136.63	-135.01	-133.88	-132.83	-132.24	-131.85	-131.01	-130.7	-129.24	-129.35	-128.11	-127.82	-127.44	-126.31	-125.39	-124.56	-123.77	-122.86	-121.97	-120.72	-120.48	-119.89	-119.21	-118.61	-118.18	-116.84	-116.51	-116.2	-115.97	-115.92	-116.03	-116.17	-116.02	-115.67	-115.42	-114.66	-114.95	-115.26	-115.67	-116.26	-116.92	-116.61	-117.53	-118.27	-119.2	-119.4	-120.06	-121.19	-123.58	-125.76	-127.74	-131.17	-134.87	-139.59	-144.58	-148.57	-153.72
-2214.4	-2224	-2229.7	-2234.4	-2236.2	-2234	-2230.8	-2224.8	-2217.8	-2207.8	-2195.8	-2180.8	-2162.8	-2139.8	-2111.8	-2077.8	-2036.4	-1987	-1931.6	-1870.1	-1803.8	-1733.8	-1662.8	-1592.8	-1523.8	-1458.8	-1396.8	-1337.8	-1280.8	-1227.8	-1177.8	-1131.8	-1092.1	-1053.9	-1016.6	-981.33	-947.47	-912.92	-876.28	-836.22	-791.76	-743.31	-697.38	-654.61	-614.53	-573.31	-532.32	-493.55	-455.78	-422.8	-391.8	-358.8	-326.79	-294.8	-265.8	-242.8	-220.8	-205.8	-190.8	-176.8	-163.8	-150.84	-137.67	-126.45	-115.23	-106.05	-96.072	-86.315	-78.324	-71.108	-65.038	-60.28	-54.458	-48.242	-40.026	-31.249	-22.494	-12.377	-3.1607	5.7746	13.56	21.734	27.167	20.473	20.445	20.351	29.567	23.784	13.565	1.32	-14.57	-32.354	-52.138	-72.924	-94.918	-117.17	-136.28	-151.06	-162.85	-170.8	-175.8	-178.8	-178.91	-178.77	-176.55	-175.33	-172.23	-170.01	-167.88	-166.88	-165.86	-164.98	-162.76	-159.98	-158.35	-155.74	-154.14	-152.43	-150.54	-149.64	-148.78	-148.89	-148.87	-146.84	-141.87	-136.67	-130.3	-124.02	-118.42	-114.1	-110.51	-107.61	-108.11	-111.05	-115.62	-122.09	-127.7	-132.14	-134.86	-136.54	-137.77	-137.98	-138.11	-135.42	-131.55	-126.97	-120.9	-114.26	-109.04	-102.28	-94.353	-85.458	-79.718	-74.009	-70.841	-66.951	-63.482	-60.539	-58.97	-56.616	-54.767	-53.469	-51.439	-49.085	-46.602	-42.872	-37.963	-33.309	-28.153	-21.54	-13.929	-7.3585	0.16542	7.4875	13.705	18.8	25.215	30.699	35.888	39.643	43.727	47.062	50.362	52.967	56.347	56.685	48.027	57.477	52.036	46.98	40.228	32.111	22.267	12.365	3.3192	-6.1935	-12.97	-17.47	-18.652	-18.946	-18.734	-18.666	-16.089	-12.457	-9.0048	-5.6989	-1.3229	3.8021	9.5458	16.147	23.352	28.238	33.824	39.801	43.945	46.958	49.329	50.003	49.788	47.301	44.687	41.621	38.228	35.542	31.523	28.678	25.68	25.007	24.456	24.508	26.383	27.847	29.526	30.844	32.87	34.075	33.926	33.272	30.834	27.666	22.497	16.794	9.8564	4.0666	-2.7568	-7.8757	-11.52	-15.857	-18.774	-21.1	-21.407	-22.234	-22.021	-17.83	-13.706	-7.3552	-2.8022	2.3393	7.2919	15.299	20.799	22.831	21.588	22.716	20.593	21.963	18.629	17.048	10.207	5.3103	1.0564	-1.2039	-8.2302	-12.179	-17.617	-22.205	-28.363	-32.515	-34.745	-37.374	-41.362	-48.264	-54.628	-61.018	-66.718	-72.156	-78.308	-83.371	-88.616	-94.308	-98.954	-103.53	-106.15	-108.87	-110.62	-112.79	-115.13	-117.71	-118.83	-118.75	-119.35	-120.67	-121.96	-122.52	-122.09	-122.9	-124.26	-123.89	-124.48	-124.02	-123.75	-124.04	-124.2	-123.85	-123.44	-123.29	-122.85	-121.87	-121.03	-120.23	-119.45	-119.17	-120.09	-119.65	-118.9	-117.97	-117.42	-117.08	-116.74	-116.24	-115.98	-116.17	-116.24	-116.16	-116.22	-116.36	-116.33	-116.11	-116.29	-115.57	-115.73	-116.03	-116.82	-117.34	-118.11	-117.99	-118.54	-119.52	-120.87	-121.55	-122.54	-123.84	-124.86	-126.97	-130.68	-133.19	-136.49	-140.84	-144.76	-148.87
-2214.4	-2222.1	-2227.9	-2230.7	-2232.5	-2230.3	-2225.1	-2219.1	-2209.1	-2196.1	-2176.1	-2151.1	-2119.1	-2081.1	-2035.1	-1983.1	-1921.9	-1854.4	-1783	-1710.6	-1636.2	-1564.2	-1493.2	-1426.2	-1362.2	-1303.2	-1248.2	-1194.3	-1142.3	-1090.3	-1041.3	-996	-954.55	-916.28	-880.38	-846.82	-813.23	-779	-742.8	-703.68	-658.77	-610.8	-564.8	-523.8	-484.7	-448.8	-411.8	-377.8	-344.8	-318.8	-295.8	-271.8	-244.8	-220.8	-197.8	-180.8	-167.8	-160.8	-150.99	-140.23	-129.15	-118.94	-107.9	-98.926	-87.95	-77.972	-65.902	-55.646	-46.527	-39.953	-34.041	-28.813	-23.57	-17.577	-10.8	-3.8	10.289	11.456	18.214	639.2	639.2	639.49	19.58	19.754	19.967	20.203	20.266	20.2	20.2	22.04	8.295	-8.4901	-28.275	-49.453	-72.698	-95.634	-117.42	-134.2	-147.99	-158.93	-166.18	-171.35	-174.13	-174.93	-175.08	-174.12	-171.75	-169.32	-167.22	-165.41	-163.39	-160.16	-155.94	-150.74	-146.1	-141.48	-136.88	-132.29	-128.56	-125.66	-123.78	-121.66	-120	-118.04	-113.75	-108.49	-102.2	-96.381	-92.014	-87.565	-84.098	-83.488	-85.599	-89.062	-95.06	-103.33	-110.57	-115.71	-119.16	-121.92	-122.37	-122.27	-121.19	-117.96	-112.81	-108.44	-103.64	-99.285	-93.545	-87.913	-82.259	-76.385	-71.617	-66.946	-64.93	-62.285	-59.005	-57.316	-54.963	-53.397	-52.507	-50.125	-49.581	-48.294	-44.467	-40.138	-35.558	-31.513	-25.147	-17.865	-9.6916	-3.2182	3.5754	10.459	16.634	23.448	28.744	33.981	37.566	42.284	45.569	48.536	51.067	53.748	55.416	55.755	56.449	54.551	50.244	45.269	38.241	29.144	20.247	11.619	2.2191	-6.3823	-12.483	-17.659	-20.149	-21.929	-21.641	-20.168	-18.644	-15.492	-10.947	-7.7137	-3.5598	2.3249	7.5355	13.678	19.361	25.488	31.477	36.046	39.753	42.819	44.399	45.093	44.362	41.75	39.171	35.882	32.214	28.072	23.754	20.158	19.13	17.836	17.001	16.937	19.311	20.654	23.663	25.864	28.042	29.614	32.05	33.194	31.418	28.968	24.596	20.807	15.61	9.7353	4.317	-0.47319	-4.022	-7.2808	-9.9462	-13.378	-14.655	-14.141	-12.07	-9.5729	-4.7341	1.9009	8.3734	15.042	21.229	28.028	32.603	37.29	40.911	38.614	36.795	35.765	32.804	28.329	21.721	16.689	9.2416	4.6706	-0.97348	-8.1262	-14.789	-20.007	-24.382	-29.056	-33.475	-37.028	-41.873	-47.239	-51.834	-56.969	-62.27	-67.154	-70.085	-73.175	-77.176	-80.76	-83.09	-86.118	-87.537	-89.469	-90.037	-92.723	-94.638	-96.644	-98.298	-100.55	-101.93	-103.67	-105.98	-108	-109.42	-111.43	-113.42	-114.08	-115.54	-116.35	-116.33	-117.45	-117.82	-117.34	-117.71	-117.45	-118.09	-117.2	-116.58	-117.07	-116.88	-117.42	-117.2	-116.6	-116.72	-115.87	-115.3	-115.95	-115.37	-114.98	-115.26	-115.46	-116.37	-116.09	-115.94	-115.9	-116.14	-116.61	-116.86	-117.53	-117.73	-116.87	-117.4	-117.94	-118.6	-119.7	-119.54	-120.57	-121.42	-122.38	-123.39	-124.73	-125.81	-127.95	-130.2	-132.59	-135.07	-138.4	-141.39	-143.55
-2205.4	-2211.2	-2213	-2213.7	-2211.5	-2206.3	-2199.1	-2190	-2177.1	-2157.4	-2128.6	-2089.8	-2042.8	-1986.8	-1923.8	-1851.8	-1772.6	-1687.2	-1600.7	-1518.3	-1441.1	-1371.1	-1304.1	-1244.1	-1188	-1138.8	-1093.7	-1050.4	-1006.2	-959.97	-915.68	-872.56	-831.79	-793.8	-756.8	-721.8	-686.8	-648.8	-612.8	-567.8	-521.8	-473.8	-429.8	-389.8	-354.8	-320.8	-291.8	-262.8	-242.8	-225.8	-211.95	-197.18	-180.96	-162.8	-147.88	-135.12	-126.35	-120.59	-112.68	-103.46	-93.296	-83.531	-74.766	-66.647	-58.433	-48.218	-37.24	-28.476	-19.577	-12.363	-7.1483	-2.0308	3.2	7.2	11.2	15.132	639.17	639.2	639.2	639.17	639.03	639.2	334.41	29.629	29.6	19.948	19.952	19.707	19.48	24.655	13.079	-1.7452	-18.8	-36.8	-57.8	-78.775	-98.561	-116.35	-131.46	-144.71	-154.71	-162.5	-167.45	-170.7	-172.8	-172.49	-171.07	-169.11	-166	-162.79	-158.56	-153.34	-148.26	-141.06	-131.82	-124.21	-116.74	-110.39	-104.59	-98.631	-94.281	-90.416	-89.035	-87.2	-84.988	-80.57	-77.257	-73.896	-71.421	-69.355	-67.513	-68.743	-70.618	-75.031	-81.329	-88.775	-95.361	-99.842	-102.15	-104.26	-104.94	-103.93	-102.5	-99.334	-96.347	-91.582	-87.38	-84	-78.1	-73.346	-70.083	-65.298	-61.435	-57.955	-56.116	-54.343	-51.739	-50.309	-48.718	-46.924	-44.811	-43.171	-41.799	-39.442	-36.107	-31.985	-28.78	-23.71	-17.881	-11.581	-4.292	2.1939	7.5325	13.76	19.933	26.11	31.007	34.75	38.302	41.914	45.506	48.092	49.552	50.356	52.468	53.897	52.577	50.188	45.531	38.892	31.631	24.64	15.639	6.7446	-1.555	-8.548	-14.957	-19.87	-23.226	-24.455	-24.284	-24.275	-21.351	-18.308	-15.272	-11.625	-6.0662	-1.3673	4.3006	9.7046	14.862	21.391	25.937	30.358	33.534	35.612	38.35	38.142	36.756	34.661	31.108	28.832	23.311	19.314	14.958	12.445	9.7718	8.0411	9.1731	9.6356	10.657	13.168	16.798	20.152	24.07	26.175	27.83	29.476	29.969	29.851	26.469	22.263	18.441	14.289	10.218	4.8444	2.0187	-2.4292	-3.9621	-5.9485	-7.6135	-9.2959	-6.2027	-1.2711	3.2584	7.6537	13.616	20.492	25.528	31.008	34.153	36.547	36.811	36.043	33.703	29.898	25.894	22.296	17.899	12.364	5.6218	1.3981	-5.4276	-9.9124	-16.128	-22.539	-28.455	-32.492	-34.886	-39.026	-43.707	-48.813	-52.626	-57.216	-60.443	-62.931	-65.442	-68.026	-69.561	-70.935	-73.157	-75.382	-76.436	-76.577	-77.018	-78.925	-81.056	-82.443	-84.236	-85.702	-87.373	-90.555	-92.8	-95.344	-96.75	-99.624	-101.12	-102.61	-104.4	-106.65	-107.64	-108.85	-110.22	-109.38	-109.83	-110.68	-111.19	-111.09	-110.74	-112.01	-113.09	-113.44	-113.62	-112.79	-113.19	-113.76	-114.11	-113.26	-113.89	-115.14	-115.44	-115.74	-116.38	-116.01	-115.79	-115.97	-116.52	-117.16	-117.47	-117.98	-118.32	-118.69	-119.28	-118.83	-119.51	-120.64	-121.82	-122.73	-123.71	-124.33	-125.22	-126.72	-128.27	-129.62	-130.7	-132.8	-133.77	-136.26	-138.86	-141.4
-2188.2	-2187.9	-2184.7	-2178.5	-2169.3	-2158.1	-2144.9	-2128.9	-2108.1	-2078.1	-2036.1	-1983.1	-1921.1	-1851.1	-1772.1	-1685	-1592	-1494.7	-1398.5	-1314.3	-1239.1	-1172.9	-1113.6	-1061.4	-1015.2	-974.96	-938.8	-907.8	-871.8	-833.8	-793.8	-753.8	-713.8	-675.8	-639.8	-603.8	-568.8	-529.8	-481.8	-436.8	-390.8	-346.8	-304.8	-268.8	-236.8	-208.8	-186.87	-177.1	-166.33	-157.56	-150.47	-142.26	-131.26	-119.49	-107.72	-97.8	-88.8	-81.8	-72.77	-64.8	-56.8	-48.8	-40.8	-34.747	-27.589	-19.8	-11.8	-4.8	3.1065	9.081	14.327	18.751	334.01	333.8	523.63	714.85	715.06	714.85	714.61	714.7	714.91	714.89	371.74	28.846	29.195	19.122	18.683	18.589	18.966	24.39	14.812	3.196	-10.8	-26.017	-43.126	-62.072	-79.747	-97.8	-112.8	-127.8	-139.8	-149.8	-156.8	-162.8	-166.8	-168.8	-168.59	-167.37	-164.16	-158.95	-154.13	-148.16	-139.82	-131.4	-120.15	-110.55	-101.19	-93.654	-85.632	-78.093	-71.894	-67.706	-64.975	-63.352	-60.976	-58.281	-56.596	-56.35	-55.54	-53.931	-53.75	-55.953	-59.787	-63.597	-69.984	-75.594	-81.274	-84.946	-87.376	-88.529	-89.754	-88.492	-86.531	-85.043	-80.474	-77.17	-72.657	-69.039	-64.568	-60.242	-56.654	-53.279	-49.569	-47.329	-45.505	-43.561	-42.17	-40.99	-39.242	-37.392	-35.349	-34.118	-33.054	-30.128	-26.74	-24.318	-19.939	-16.702	-10.684	-4.4269	1.4728	6.6818	11.455	16.123	21.92	27.208	32.263	35.095	37.766	40.539	42.636	44.829	46.012	46.288	46.366	46.738	45.078	41.428	35.494	29.042	22.698	15.2	7.4476	-0.19063	-7.7596	-14.085	-19.701	-24.543	-27.038	-29.119	-29.298	-28.582	-26.575	-23.429	-19.439	-16.162	-12.368	-6.6286	-1.871	3.4764	8.5292	15.002	19.217	21.994	25.524	27.932	29.347	28.809	27.28	25.647	22.78	18.785	14.827	9.5625	5.4707	2.2015	-0.19249	-1.481	-1.9091	-0.38605	1.3755	3.623	7.1029	11.393	15.165	19.28	21.904	23.866	24.394	24.861	24.977	22.975	18.842	15.294	12.614	9.2335	5.5785	1.6324	-0.2578	-3.5109	-3.5412	-3.8546	-3.0307	-1.0238	4.6458	11.404	15.079	18.272	23.046	26.327	28.928	29.942	28.85	25.235	22.758	20.134	16.621	11.281	6.5238	2.1477	-2.3825	-8.2713	-13.793	-18.457	-23.999	-28.183	-33.133	-37.427	-42.018	-45.114	-48.463	-52.633	-57.171	-59.386	-62.268	-62.664	-64.703	-65.962	-66.772	-67.313	-67.258	-67.384	-67.936	-67.951	-68.184	-68.611	-69.514	-70.722	-72.079	-73.841	-75.603	-78.289	-80.497	-83.095	-85.377	-86.52	-88.736	-91.579	-93.334	-95.586	-96.592	-98.897	-100.26	-101.59	-102.29	-102.76	-103.08	-104.34	-104.91	-105.99	-107.15	-108.57	-108.66	-108.99	-109.65	-111.13	-111.4	-111.95	-112.96	-114.31	-115.64	-115.64	-116.16	-116.13	-117.48	-117.81	-118.09	-118.59	-117.81	-118.09	-118.55	-119.27	-119.98	-120.88	-120.72	-121.78	-122.77	-123.81	-124.57	-125.31	-126.39	-128.11	-129.76	-131.05	-132.26	-133.2	-134.11	-135.67	-138.65	-140.13
-2162.2	-2154	-2141.7	-2127.5	-2108.3	-2088.1	-2059.9	-2029.9	-1992.9	-1946.9	-1890.9	-1824.8	-1747.8	-1666.8	-1575.8	-1483.8	-1387.8	-1294.6	-1204.3	-1124.1	-1054.9	-995.71	-945.49	-901.28	-864.07	-830.01	-798.03	-768.04	-738.05	-706.01	-670.8	-633.8	-595.8	-558.8	-524.8	-491.8	-458.8	-423.8	-383.8	-344.8	-307.8	-272.8	-240.8	-213.03	-189.25	-168.49	-152.72	-141.8	-131.8	-122.77	-114.64	-106.8	-95.8	-84.8	-72.8	-62.8	-53.8	-45.8	-38.8	-31.8	-25.955	-20.189	-14.016	-8.8057	-3.8895	1.8748	7.64	12.406	18.262	57.687	348.11	638.11	638.08	638.31	714.52	790.31	789.98	790.11	790.36	790.56	790.33	790.2	409.21	28.418	18.369	18.2	18.2	18.278	18.701	26.123	18.544	9.5472	-1.834	-14.999	-28.773	-44.353	-60.935	-76.8	-93.012	-107.21	-120.01	-129.8	-138.8	-145.8	-150.8	-154.8	-155.75	-155.53	-153.32	-149.38	-144.84	-138.59	-130.16	-121.74	-111.91	-102.1	-93.64	-85.684	-77.406	-69.878	-64.251	-59.829	-57.44	-54.407	-50.726	-48.38	-47.018	-45.516	-44.251	-42.944	-43.056	-45.448	-47.22	-50.39	-54.877	-60.404	-64.331	-66.935	-69.3	-71.491	-72.602	-72.22	-70.797	-68.8	-67.033	-62.336	-57.247	-54.1	-50.191	-47.116	-43.617	-40.336	-37.538	-35.922	-33.667	-32.753	-31.257	-29.899	-28.633	-26.835	-25.208	-24.057	-22.437	-20.689	-17.878	-15.297	-11.718	-8.1176	-4.5527	0.32538	5.994	10.168	14.429	19.065	24.032	27.98	31.869	33.778	36.15	37.631	39.235	40.03	40.462	40.234	39.041	37.409	35.306	30.875	25.425	18.683	11.279	4.9567	-1.563	-9.148	-15.389	-22.223	-27.206	-30.728	-33.765	-35.217	-35.669	-34.209	-32.317	-29.333	-26.097	-22.389	-18.854	-14.775	-9.5826	-4.7063	0.97709	4.6881	8.5992	12.686	15.038	16.596	18.53	17.893	16.358	14.007	11.446	7.4831	2.5066	-2.4217	-6.2273	-9.9586	-11.246	-12.092	-13.165	-13.52	-10.641	-6.2573	-3.3613	-0.036882	4.2293	9.0883	12.37	15.598	16.342	17.192	17.064	17.257	17.353	13.362	9.0802	7.1982	5.0094	2.067	-1.4547	-2.8762	-5.0947	-5.5126	-3.3991	-1.9464	0.72886	5.2969	10.23	13.649	15.322	15.562	17.063	17.208	15.957	12.29	9.2945	4.9731	1.8139	-0.94539	-5.6561	-10.694	-14.891	-18.259	-22.623	-28.971	-33.019	-37.43	-42.205	-46.089	-49.62	-53.52	-57.544	-59.816	-62.825	-65.107	-66.242	-66.308	-66.785	-66.073	-65.669	-64.94	-64.04	-63.967	-62.112	-61.068	-60.758	-61.427	-60.912	-61	-61.366	-63.569	-65.27	-67.507	-69.038	-70.424	-72.608	-74.76	-76.985	-79.779	-82.37	-84.521	-86.324	-88.6	-90.924	-91.565	-93.408	-94.907	-95.229	-96.511	-98.106	-98.969	-101.05	-102.45	-103.64	-104.1	-105.9	-107.6	-109.17	-109.75	-112.05	-113.32	-114.53	-115.41	-116	-115.98	-117.72	-118.54	-118.45	-118.59	-118.93	-118.46	-119.15	-119.9	-120.85	-121.79	-122.63	-123.63	-123.75	-124.59	-125.41	-126.42	-127.93	-129.48	-131.23	-132.46	-133.46	-134.52	-135.71	-137.5	-139.43	-140.92
-2120.2	-2102	-2077.8	-2047.8	-2015.8	-1978.8	-1933.8	-1883.7	-1828.5	-1766.3	-1697.1	-1621.9	-1539.8	-1452.8	-1360.8	-1271.8	-1182.8	-1097.6	-1017.4	-946.17	-883.96	-831.9	-789.91	-752.92	-720.93	-690.91	-661.7	-633.49	-607.27	-580.06	-549.9	-516.8	-482.8	-449.8	-418.9	-389.8	-361.8	-332.8	-301.8	-273.98	-249.2	-227.43	-206.66	-188.8	-172.8	-157.8	-142.8	-130.8	-118.8	-106.8	-93.8	-80.8	-67.8	-55.8	-44.8	-35.8	-27.86	-21.091	-14.321	-8.5513	-3.5341	1.6768	5.7505	9.5198	13.287	17.2	21.2	25.2	57.2	57.315	347.53	637.74	637.89	637.65	713.42	789.57	789.79	789.99	790.2	790.2	790.2	790.2	409.08	28.2	28.2	28.2	18.097	18.129	18.436	18.687	24.616	16.377	7.2	-2.4721	-14.053	-27.635	-41.532	-57.564	-71.571	-85.362	-97.153	-108.13	-116.8	-125	-131.24	-135.11	-136.9	-137.69	-136.53	-134.98	-131.07	-125.86	-118.5	-111.43	-104.24	-96.688	-89.805	-82.718	-75.3	-69.41	-64.679	-60.313	-56.598	-52.139	-48.515	-44.82	-42.441	-39.473	-37.236	-35.168	-34.758	-34.931	-35.729	-37.988	-40.408	-43.806	-46.197	-48.932	-50.776	-52.263	-53.356	-53.465	-52.604	-50.455	-48.662	-44.933	-41.356	-38.529	-34.313	-31.382	-29.97	-26.342	-24.827	-22.338	-21.131	-19.782	-19.166	-17.579	-17.598	-16.173	-15.063	-14.377	-12.415	-10.852	-9.8561	-6.904	-4.089	-0.59723	2.9729	6.0718	10.576	14.13	17.46	21.16	24.85	28.75	30.623	33.125	33.471	34.75	34.661	34.247	32.736	31.275	29.611	27.621	23.59	18.785	12.727	6.1244	-0.092145	-6.5798	-13.598	-19.944	-25.916	-31.79	-36.521	-40.307	-42.548	-43.644	-43.795	-42.488	-40.632	-37.208	-34.994	-31.816	-28.146	-24.51	-19.822	-15.459	-10.916	-7.4416	-4.178	-0.19088	1.8193	2.9191	3.7645	3.7873	2.4672	0.12077	-2.7819	-5.7613	-10.377	-15.92	-19.617	-22.29	-23.775	-26.318	-26.209	-25.599	-23.946	-20.656	-16.211	-11.499	-7.691	-4.9655	-1.2575	2.0173	4.3073	6.2762	9.1601	8.2502	7.2969	6.5189	5.6499	1.9471	-1.8123	-3.0493	-5.1281	-7.6435	-10.287	-10.98	-10.589	-8.4039	-4.5748	-1.809	0.2268	2.3667	4.284	5.307	3.8178	2.7451	0.57685	-2.4797	-5.0328	-10.095	-13.912	-16.878	-19.734	-22.447	-26.957	-31.847	-36.562	-40.013	-43.231	-48.164	-52.771	-56.658	-60.462	-62.927	-66.145	-68.229	-70.333	-71.814	-71.833	-70.952	-70.498	-68.512	-66.615	-64.1	-62.859	-60.46	-58.402	-56.138	-54.93	-53.596	-52.015	-52.073	-52.597	-53.378	-54.154	-56.049	-57.399	-59.145	-61.327	-63.035	-65.473	-68.596	-72.015	-73.643	-75.151	-78.316	-80.495	-82.32	-84.41	-85.848	-87.508	-89.076	-90.669	-92.109	-94.039	-96.367	-97.636	-99.352	-102.38	-104.12	-105.84	-107.93	-109.91	-112.01	-114.22	-115.28	-115.87	-116.67	-117.51	-118.34	-118.35	-118.7	-119.44	-120.16	-119.72	-120.7	-121.77	-122.56	-123.44	-124.46	-125.59	-126.52	-127.6	-129.22	-130.57	-132.02	-132.6	-133.66	-134.82	-136.18	-137.88	-138.36	-140.1	-141.99
-2049.2	-2019	-1980.8	-1938.8	-1889.8	-1834.8	-1773.8	-1707.7	-1636.5	-1561.3	-1483.1	-1403.9	-1320.8	-1236.8	-1153.8	-1072.8	-994.8	-920.79	-851.8	-789.8	-733.8	-686.8	-647.59	-615.38	-584.17	-554.96	-528.88	-503.89	-481.85	-460.43	-437.02	-410.29	-380.74	-354.76	-328.34	-305	-282.16	-260.39	-238.61	-219.8	-204.8	-193.8	-183.8	-174.8	-163.8	-151.8	-138.8	-125.8	-111.8	-95.8	-78.8	-61.8	-46.8	-34.009	-23.235	-14.465	-6.6952	-0.8	5.2	10.2	14.371	18.2	21.2	24.2	26.2	17.2	17.2	17.2	17.2	17.207	17.285	16.945	16.876	17.083	17.185	17.159	17.178	17.595	18.009	789.96	789.72	789.52	408.68	27.942	27.78	27.584	27.791	17.999	18.2	18.2	18.2	23.116	16.038	8.2487	-1.3883	-12.379	-24.172	-36.965	-50.998	-64.032	-74.842	-84.427	-93.562	-101.68	-107.47	-112.26	-115.06	-116.94	-117.13	-117.43	-115.23	-111.02	-106.82	-101.6	-95.826	-91.184	-85.978	-80.752	-75.566	-70.71	-67.09	-63.703	-59.551	-54.831	-49.631	-46.262	-41.594	-36.528	-32.404	-29.671	-27.281	-25.285	-25.185	-25.234	-26.892	-28.951	-29.592	-31.348	-33.507	-34.766	-34.799	-35.341	-33.965	-32.881	-30.924	-27.422	-25.961	-22.61	-19.082	-16.146	-15.078	-13.125	-9.9521	-8.2428	-8.4095	-7.3255	-6.8659	-5.7728	-5.2474	-5.4029	-5.2528	-3.223	-2.5727	-1.4703	-0.18798	1.6265	3.4509	5.8557	9.3922	11.575	14.826	18.117	20.554	23.358	26.005	27.955	29.983	30.446	30.468	29.74	28.689	27.597	24.597	21.154	19.273	15.608	11.552	6.1278	-0.42983	-6.713	-13.529	-19.578	-26.602	-33.225	-38.303	-42.881	-47.374	-50.588	-52.704	-53.446	-52.918	-52.414	-50.695	-48.72	-46.331	-43.314	-40.157	-36.644	-32.261	-28.986	-25.238	-21.83	-17.704	-15.898	-13.591	-12.668	-11.195	-12.583	-14.325	-16.157	-17.772	-20.918	-25.688	-29.451	-32.577	-35.312	-37.747	-38.815	-38.542	-38.231	-36.424	-33.803	-30.495	-27.168	-23.226	-20.236	-17.954	-15.287	-10.269	-7.833	-5.4739	-5.5841	-5.1121	-5.8856	-6.0405	-7.4378	-11.162	-13.213	-15.776	-16.886	-18.2	-19.998	-20.467	-17.928	-14.912	-11.263	-8.8555	-8.7357	-8.1862	-8.0159	-8.1881	-9.494	-13.285	-17.467	-21.425	-24.545	-27.07	-30.741	-34.037	-37.389	-40.274	-43.869	-49.661	-53.574	-56.573	-59.766	-63.738	-67.613	-71.183	-73.409	-75.425	-77.099	-77.593	-78.769	-78.214	-76.788	-74.157	-71.876	-68.962	-66.182	-62.55	-58.978	-55.635	-53.139	-50.955	-48.43	-45.771	-44.12	-43.968	-44.676	-44.962	-45.113	-46.331	-49.267	-50.536	-53.719	-55.947	-58.396	-61.593	-63.314	-65.708	-67.639	-70.552	-72.473	-75.505	-77.218	-78.893	-81.316	-82.668	-85.411	-87.336	-89.814	-92.304	-94.907	-97.782	-99.545	-102.52	-105.53	-108.42	-110.84	-113.15	-114.17	-115.83	-115.85	-117.3	-118.23	-118.81	-119.49	-120.08	-120.75	-120.65	-121.82	-122.84	-123.8	-124.49	-125.23	-126.74	-128.12	-129.64	-130.96	-132.31	-133.45	-134.89	-135.21	-136.69	-138.35	-139.8	-140.28	-141.62	-143.36
-1941.2	-1897	-1846.8	-1790.8	-1728.8	-1661.8	-1590.8	-1516.8	-1439.5	-1357.3	-1278.1	-1199.9	-1123.8	-1050.8	-978.8	-909.8	-841.8	-777.8	-720.8	-664.8	-613.8	-565.8	-523.77	-492.78	-461.79	-431.8	-407.8	-385.38	-366.96	-351.15	-338.59	-322.71	-298.29	-278.9	-261.91	-245.92	-229.8	-214.8	-200.8	-188.8	-179.8	-173.8	-167.8	-160.8	-151.8	-140.8	-127.8	-112.8	-96.8	-78.942	-61.166	-44.394	-29.622	-16.8	-6.8	2.2	9.2	15.2	20.2	24.2	26.2	17.2	256.1	331.9	332.1	332.2	339.18	346.95	346.71	346.49	475.35	606.56	606.77	606.56	621.33	636.53	636.95	637.18	637.06	636.65	636.62	637.02	484.05	332.02	332.25	332.45	255.66	179.87	18.042	17.806	17.568	17.695	22.901	17.107	9.272	0.4794	-8.4382	-19.885	-31.862	-43.552	-53.137	-62.093	-71.313	-78.904	-84.625	-90.494	-94.665	-97.533	-99.773	-100.59	-99.389	-98.183	-94.979	-91.966	-88.415	-84.355	-81.151	-77.946	-74.745	-71.854	-69.501	-66.723	-62.197	-57.702	-52.057	-47.657	-41.641	-35.636	-29.586	-25.155	-21.449	-17.411	-15.391	-13.782	-14.587	-13.925	-14.892	-14.834	-16.187	-17.165	-17.502	-17.676	-17.367	-16.583	-14.247	-12.359	-9.408	-6.1995	-3.6917	-1.1456	0.30897	2.5224	4.3737	5.6402	6.0485	6.6741	6.5406	6.3516	7.6146	7.6804	8.3951	8.9497	8.9581	8.9909	9.7689	10.643	11.915	12.37	15.047	17.078	19.742	21.396	23.739	25.573	27.546	28.312	28.188	27.491	26.318	23.686	21.759	19.418	14.172	10.798	6.9275	3.1539	-1.7975	-7.7775	-13.527	-20.493	-26.805	-34.016	-40.053	-45.508	-51.578	-55.43	-59.059	-61.873	-64.401	-65.408	-65.283	-64.418	-63.431	-61.825	-59.124	-56.827	-53.388	-49.988	-47.07	-43.816	-40.568	-37.587	-34.621	-32.566	-30.341	-30.164	-29.888	-30.725	-31.616	-33.136	-35.129	-37.515	-41.665	-44.578	-47.902	-50.103	-51.977	-53.058	-54.144	-53.116	-52.232	-49.994	-47.021	-44.033	-41.27	-38.498	-35.509	-32.001	-29.711	-26.501	-24.864	-23.826	-21.788	-21.397	-23.394	-25.268	-27.576	-28.389	-29.674	-31.41	-32.394	-32.124	-30.849	-29.184	-24.962	-21.736	-18.971	-16.954	-16.967	-17.231	-18.453	-20.321	-22.411	-27.612	-32.638	-35.946	-38.973	-42.419	-46.233	-50.313	-54.651	-59.17	-62.086	-65.602	-69.68	-72.985	-76.687	-78.917	-80.624	-83.857	-85.58	-86.012	-86.501	-85.829	-84.808	-82.364	-79.443	-75.362	-72.235	-68.108	-64.141	-59.289	-55.547	-51.766	-47.935	-45.49	-43.065	-40.617	-39.193	-37.469	-37.07	-37.414	-38.891	-40.504	-42.271	-44.54	-46.921	-49.299	-51.645	-54.129	-55.557	-58.587	-61.499	-64.645	-66.311	-68.557	-71.244	-73.007	-75.523	-77.969	-81.087	-83.993	-86.774	-90.262	-93.273	-96.595	-99.139	-102.25	-105.64	-109.25	-112.31	-114.31	-115.41	-116.59	-118.31	-119.34	-119.8	-120.22	-121.14	-122.04	-121.72	-123	-124.17	-125.18	-125.92	-127.01	-128.34	-130.01	-131.56	-132.91	-133.74	-134.73	-136.31	-137.23	-139.02	-140.46	-141.8	-141.69	-143.14	-144.73
-1805.2	-1746	-1683.8	-1618.8	-1548.8	-1475.8	-1401.8	-1326.8	-1251.6	-1175.4	-1100.2	-1029	-960.8	-897.8	-838.8	-781.8	-724.8	-667.8	-613.8	-565.8	-514.8	-464.8	-415.8	-373.8	-338.8	-307.8	-284.8	-266.8	-248.8	-240.8	-235.8	-234.8	-228.61	-221.4	-214.19	-206.99	-200.8	-192.8	-184.8	-177.8	-171.8	-165.8	-159.8	-150.8	-139.8	-125.8	-111.11	-94.339	-77.564	-59.787	-43.8	-27.8	-13.8	-2.8	6.2	14.2	20.2	25.2	332.18	331.95	331.73	331.5	484.59	636.8	636.81	636.59	636.36	636.2	636.2	636.2	605.24	575.21	575.2	575.2	529.2	483.3	483.44	483.3	483.2	483.2	483.26	483.46	560.67	636.88	637.07	637.33	484.53	332.25	331.95	17.106	17.353	17.559	26.764	22.969	16.841	9.6033	2.5849	-5.2101	-15.006	-23.803	-32.624	-40.863	-48.613	-56.205	-63.016	-70.257	-75.056	-80.295	-82.16	-83.756	-85.55	-85.345	-84.141	-82.734	-80.733	-78.527	-76.321	-74.116	-72.913	-72.261	-70.741	-67.474	-63.076	-58.989	-54.484	-47.694	-41.684	-33.67	-27.038	-21.616	-15.553	-10.522	-6.4928	-4.6656	-2.5943	-1.2247	-1.0588	-1.0656	-1.5508	-1.4607	-1.9229	-1.6557	-1.8431	-2.278	0.093544	2.3847	4.6059	7.6641	9.5301	11.068	12.979	15.594	17.054	16.99	18.152	19.605	19.612	19.239	18.612	19.329	18.992	18.429	18.135	16.816	16.766	17.918	17.674	18.366	19.634	22.053	23.473	24.4	25.323	25.952	27.039	26.518	26.33	24.269	21.1	17.755	14.917	10.32	4.2898	-0.6466	-5.4919	-10.377	-16.127	-22.166	-28.469	-34.656	-41.492	-48.205	-53.861	-59.637	-64.177	-68.363	-71.523	-74.925	-76.607	-77.46	-78.332	-77.606	-77.421	-75.719	-72.377	-70.338	-67.781	-65.942	-63.504	-59.962	-57.314	-54.503	-52.09	-50.917	-50.074	-48.669	-49.349	-50.1	-51.508	-51.854	-53.898	-57.133	-59.456	-62.791	-64.703	-66.573	-67.531	-69.298	-70.363	-69.807	-68.565	-67.363	-65.903	-63.191	-59.358	-57.349	-55.349	-51.945	-49.976	-48.076	-47.179	-45.391	-43.197	-43.133	-45.064	-46.688	-47.193	-47.707	-47.634	-47.748	-48.173	-48.441	-46.936	-43.33	-37.88	-34.302	-30.506	-28.749	-27.183	-26.785	-25.724	-27.61	-29.695	-34.784	-39.252	-44.258	-49.73	-54.327	-59.062	-63.01	-67.808	-71.959	-75.104	-79.301	-82.491	-84.883	-88.358	-90.433	-92.109	-93.403	-93.572	-94.348	-94.783	-93.959	-91.662	-87.828	-84.525	-81.407	-77.147	-72.245	-66.765	-61.813	-57.59	-52.772	-48.691	-45.096	-40.592	-38.036	-35.677	-33.594	-32.257	-31.22	-31.805	-33.121	-35.027	-37.171	-38.859	-40.676	-43.395	-46.347	-48.734	-50.226	-53.078	-56.139	-58.659	-61.366	-63.879	-65.955	-68.636	-71.98	-76.378	-78.945	-82.503	-85.307	-89.318	-92.693	-96.766	-100.33	-104.18	-108.1	-111.92	-114.04	-115.7	-118.04	-119.84	-120.93	-121.67	-122.52	-122.89	-123.24	-123.34	-124.88	-126.14	-126.99	-127.94	-128.98	-130.18	-131.74	-133.33	-134.35	-135.18	-135.33	-137.11	-139.08	-141.12	-142.44	-143.26	-143.33	-144.87	-145.66
-1647.3	-1577	-1505.8	-1434.8	-1361.8	-1287.8	-1214.8	-1142.8	-1072.6	-1004.4	-937.19	-873.99	-814.8	-761.8	-714.8	-669.8	-623.8	-574.8	-524.8	-469.8	-421.8	-372.8	-325.8	-279.8	-240.8	-209.8	-188.8	-174.8	-172.8	-169.8	-171.96	-175.91	-180.66	-183.46	-184.29	-184.31	-182.93	-180.97	-178.19	-175.36	-171.28	-163.87	-154.8	-142.8	-130.12	-114.55	-97.8	-79.8	-59.8	-40.8	-24.8	-11.8	210.2	210.2	271.2	332.16	331.8	331.57	331.35	331.2	331.2	331.29	484.44	636.22	636.2	636.2	636.2	636.2	636.2	636.2	605.2	575.2	575.16	574.93	528.95	483.15	483.2	483.01	482.78	482.97	483.18	483.23	560.2	636.34	636.67	636.64	483.41	331.57	331.77	331.97	17.193	17.422	17.528	26.294	22.06	18.236	12.442	6.646	0.8494	-6.1172	-13.393	-20.322	-27.914	-35.547	-43.783	-50.698	-57.817	-63.881	-68.475	-72.071	-74.712	-76.508	-77.087	-76.445	-75.041	-73.697	-72.492	-72.287	-72.354	-71.795	-70.75	-67.468	-64.261	-59.558	-54.859	-47.73	-40.711	-32.793	-24.428	-17.699	-10.655	-4.6048	-0.23132	3.1319	6.4863	8.6956	11.22	11.642	11.444	10.874	10.88	10.979	10.48	10.519	12.002	13.412	15.27	17.685	19.737	20.482	22.801	24.539	25.227	25.408	25.178	25.741	25.954	25.712	25.078	24.921	25.71	24.956	24.973	23.785	23.017	23.546	22.961	23.598	23.867	25.005	26.442	26.338	26.417	27.208	26.128	24.802	23.462	19.764	15.393	10.81	6.0838	0.60356	-6.0371	-12.055	-18.965	-24.804	-30.208	-36.436	-42.568	-49.558	-56.704	-62.983	-67.638	-73.825	-78.031	-81.773	-85.944	-88.339	-90.124	-91.471	-92.606	-92.298	-91.198	-89.292	-87.669	-85.913	-83.57	-81.752	-79.776	-77.854	-75.767	-73.465	-71.246	-70.129	-70.098	-69.967	-69.682	-70.395	-70.956	-72.768	-74.483	-75.989	-78.648	-80.142	-81.725	-83.614	-85.34	-86.148	-87.058	-87.164	-87.746	-86.326	-83.681	-81.302	-80.152	-78.802	-76.893	-74.232	-72.955	-71.119	-69.804	-68.241	-66.748	-67.299	-67.611	-68.857	-68.497	-68.076	-64.93	-63.044	-62.185	-60.448	-55.838	-51.421	-45.392	-38.855	-35.397	-33.66	-32.063	-29.514	-28.62	-30.37	-34.496	-39.747	-46.16	-52.942	-58.371	-65.287	-71.146	-76.337	-80.4	-83.976	-88.233	-92.284	-94.538	-97.376	-100.18	-101.62	-102.83	-103.98	-104.38	-103.45	-102.7	-101.56	-99.204	-95.876	-91.795	-86.751	-81.881	-76.619	-71.305	-66.201	-60.984	-55.565	-50.213	-45.572	-40.883	-36.799	-33.687	-30.793	-28.674	-27.632	-27.476	-27.222	-28.138	-30.269	-32.105	-34.871	-36.055	-38.794	-41.656	-44.463	-46.922	-49.129	-51.754	-54.747	-57.273	-60.813	-63.77	-66.553	-70.512	-73.646	-77.609	-82.164	-86.033	-90.818	-94.982	-99.612	-104.05	-108.55	-111.71	-114.93	-118.31	-120.04	-121.49	-123.29	-124.08	-125.04	-125.33	-126	-125.77	-126.86	-128.35	-129.63	-130.65	-131.46	-132.56	-133.44	-134.93	-136.19	-136.32	-137.45	-138.97	-141.1	-143.02	-144.35	-144.2	-145.29	-146.89	-147.63
-1473.3	-1398.1	-1324.9	-1252.8	-1180.8	-1110.8	-1042.8	-977.8	-913.63	-851.43	-792.22	-735.02	-683.81	-638.8	-597.8	-560.8	-523.83	-483.04	-438.08	-394.09	-350.1	-308.11	-268.12	-228.13	-193.14	-165.15	-147.16	-140.19	-137.4	-139.38	-142.17	-148.05	-156.19	-163.21	-167.87	-170.75	-172.96	-173.26	-172.23	-170.83	-166.42	-157.01	-145.05	-131.48	-115.9	-99.109	-79.919	-60.8	-41.8	-23.8	119.2	210.2	210.2	210.2	270.84	331.42	331.2	331.2	331.2	331.2	331.2	331.2	484.2	636.2	636.2	636.2	636.2	636.2	636.2	636.03	604.81	574.58	574.43	574.63	528.84	482.67	482.44	482.45	482.65	482.75	482.52	482.31	559.68	635.77	635.87	636.07	483.17	331.14	331.12	331.52	16.926	16.98	16.745	16.692	16.796	25.951	23.298	19.502	14.343	10.11	5.1072	0.37759	-7.2156	-15.285	-25.083	-34.217	-43.578	-51.196	-57.791	-64.388	-68.987	-73.38	-76	-74.774	-74.372	-72.971	-72.662	-71.488	-71.928	-72.11	-70.956	-67.651	-63.684	-59.124	-53.044	-45.847	-38.741	-30.176	-21.724	-13.718	-4.7251	1.2721	6.4438	10.56	14.617	18.001	19.105	19.631	20.047	19.83	19.639	19.354	19.156	19.728	21.054	22.007	22.157	23.096	24.231	25.224	25.641	484.25	483.88	483.25	16.09	16.156	16.543	16.117	15.964	15.831	15.517	16.01	16.074	16.435	25.347	24.671	25.319	26.092	26.666	26.871	26.362	26.207	26.933	26.43	25.537	22.284	19.978	16.116	10.281	4.9103	-1.6213	-8.6269	-16.33	-24.035	-32.037	-39.523	-46.293	-52.478	-58.921	-66.059	-73.424	-78.755	-83.6	-88.857	-91.818	-96.285	-99.398	-101.77	-103.52	-104.91	-105.6	-106.1	-105.84	-104.04	-102.68	-101.6	-99.462	-98.147	-96.823	-94.985	-94.005	-92.889	-91.762	-90.728	-89.951	-90.307	-91.6	-91.233	-91.805	-92.695	-94.174	-96.197	-97.911	-98.525	-99.277	-100.99	-102.72	-104.07	-104.19	-104.6	-105.27	-104.75	-104.61	-103.13	-101.84	-100.06	-99.529	-97.865	-96.391	-93.792	-92.636	-92.206	-91.433	-90.507	-90.152	-90.442	-87.457	-85.086	-79.923	-74.283	-68.466	-63.842	-58.094	-51.443	-43.45	-37.165	-33.881	-31.002	-29.737	-29.001	-29.57	-32.001	-37.818	-44.803	-51.911	-59.29	-67.218	-76.252	-82.429	-88.363	-93.151	-97.998	-100.35	-103.57	-107.03	-109.93	-111.55	-113.07	-114.29	-114.31	-114.08	-113.1	-112.4	-109.49	-106.99	-103.98	-99.746	-94.871	-89.147	-83.531	-78.041	-71.543	-65.704	-59.93	-54.019	-47.939	-42.257	-37.17	-33.155	-29.635	-26.094	-25.186	-24.259	-23.955	-24.299	-26.099	-27.877	-29.609	-31.755	-34.722	-37.361	-39.311	-42.013	-44.998	-48.174	-50.394	-52.812	-55.633	-59.786	-62.643	-66.864	-70.287	-73.594	-77.935	-83.448	-88.527	-93.942	-98.86	-104.11	-109.44	-113.77	-117.42	-120.77	-122.95	-124.91	-126.67	-127.28	-128.08	-128.46	-127.96	-128.74	-130.17	-131.63	-132.59	-133.43	-134.65	-135.82	-136.67	-137.75	-138.75	-138.74	-139.93	-141.61	-143.53	-145.11	-145.28	-146.52	-148.04	-148.64	-150.16
-1293.3	-1216.1	-1142.9	-1072.8	-1005.8	-942.8	-881.8	-824.8	-768.66	-714.45	-662.25	-613.05	-568.92	-528.09	-493.3	-459.51	-426.72	-393.8	-359.8	-327.8	-295.8	-264.8	-234.8	-204.8	-178.8	-159.8	-146.8	-139.8	-135.63	-135.49	-137.71	-142.8	-149.78	-156.62	-162.57	-166.79	-168.8	-168.77	-166.48	-163.3	-156.11	-146.02	-131.31	-115.74	-98.815	-79.529	-61.125	-42.8	118.2	118.15	194.93	271.03	270.94	270.52	300.2	331.2	331.2	331.2	407.2	483.2	483.2	483.2	560.2	636.2	636.2	636.12	635.89	635.67	635.44	635.22	581.2	528.2	528.32	528.31	528.2	528.2	528.2	528.33	497.2	467.2	467.2	467.2	490.34	513.54	513.74	513.58	398.35	284.45	284.85	285.26	193.38	16.155	16.351	16.249	16.269	16.67	16.997	16.804	25.57	24.76	22.96	19.16	12.361	3.5631	-7.3953	-18.829	-28.837	-38.512	-49.108	-58.707	-67.722	-73.439	-75.507	-76.104	-75.703	-74.304	-72.907	-72.062	-70.614	-70.701	-68.303	-64.906	-61.247	-55.427	-49.227	-42.031	-34.003	-26.56	-17.736	-8.7386	0.26303	5.8959	11.575	16.959	20.044	23.326	24.76	25.236	26.084	25.924	25.602	25.059	25.404	25.74	25.843	25.167	24.353	15.981	15.94	483.19	483.69	483.95	483.54	483.05	329.72	178.16	178.02	177.8	178.02	177.63	177.46	177.38	15.686	15.982	15.779	15.387	15.298	16.124	16.521	16.801	16.128	15.84	25.412	26.057	24.302	20.614	16.059	10.759	5.4726	-2.0215	-9.0935	-17.694	-27.35	-36.109	-44.561	-53.369	-60.8	-68.794	-76.344	-82.024	-89.155	-93.705	-99.87	-103.52	-106.62	-109.77	-113.06	-115.44	-116.89	-118.43	-118.96	-119.92	-120.54	-118.97	-117.82	-116.74	-115.44	-115.2	-113.9	-112.32	-111.58	-110.2	-110.97	-110.18	-109.42	-109.34	-110.56	-110.92	-111.37	-112.42	-113.5	-114.83	-116.08	-118.02	-118.33	-119.5	-120.55	-122.16	-123.5	-123.5	-123.8	-124.49	-124.69	-125.09	-124.27	-123.14	-120.58	-119.71	-119.12	-117.53	-115.66	-112.62	-112.85	-113.67	-112.89	-109.81	-105.54	-99.854	-91.827	-83.918	-74.364	-65.044	-55.133	-47.544	-41.19	-34.075	-28.671	-26.898	-27.032	-28.041	-30.965	-35.717	-43.165	-48.969	-58.517	-67.579	-76.936	-85.029	-92.748	-99.33	-104.74	-108.93	-112.24	-115.9	-118.33	-120.48	-121.74	-123.1	-123.06	-122.97	-123.38	-123.25	-121.26	-118.09	-115.58	-111.33	-107.41	-102.59	-96.976	-90.935	-84.623	-78.349	-71.411	-64.56	-58.575	-51.341	-45.024	-39.622	-34.655	-30.35	-27.224	-25.004	-23.325	-22.93	-22.718	-23.531	-24.858	-27.055	-28.195	-31.454	-34.429	-37.185	-39.24	-41.714	-45.093	-48.046	-50.478	-52.771	-56.635	-59.427	-63.691	-67.337	-71.18	-76.202	-81.162	-87.379	-93.36	-99.295	-104.06	-109.24	-114.73	-119.82	-123.48	-127.13	-128.09	-129.14	-129.98	-131.24	-131.99	-132.2	-132.77	-133.63	-135.21	-136.49	-137.63	-138.39	-139.15	-140.25	-141.62	-142.86	-142.66	-143.38	-144.33	-146.14	-147.88	-148.23	-149.25	-150.64	-151.39	-152.74
-1107.3	-1029.1	-956.9	-890.84	-830.85	-775.85	-723.86	-674.86	-628.83	-584.83	-541.84	-501.84	-464.85	-429.8	-397.8	-368.8	-341.8	-315.8	-291.8	-268.8	-247.8	-228.8	-208.8	-190.8	-174.8	-162.8	-153.8	-148.8	-144.8	-142.8	-143.8	-146.8	-151.8	-157.8	-162.8	-165.8	-167.11	-166.53	-162.48	-154.15	-144.16	-130.43	-113.64	-95.488	-75.083	-55.68	-37.278	-21.273	209.53	209.54	270.57	331.35	331.15	331.2	16.2	15.988	15.953	16.153	484.2	636.2	636.2	636.2	635.97	635.74	635.52	635.29	635.2	635.2	635.2	635.2	558.2	15.2	15.2	482.2	528.2	574.2	574.2	574.2	513.2	452.2	452.2	452.2	421.21	391.24	391.2	391.2	314.2	238.21	238.59	238.83	207.77	177.97	177.7	177.59	15.988	16.388	26.219	26.182	26.413	16.613	16.813	16.782	26.178	17.411	5.9935	-6.1899	-17.991	-29.794	-41.427	-52.244	-62.602	-68.995	-72.798	-73.436	-73.036	-72.638	-70.445	-69.952	-68.357	-66.048	-63.651	-59.625	-54.86	-49.608	-42.41	-35.212	-27.556	-19.799	-11.752	-3.7462	4.1712	9.6959	28.071	28.103	181.29	333.03	332.53	332.33	332.19	332.02	331.77	331.7	193.5	56.548	56.589	55.647	15.868	15.681	15.751	16.26	16.809	16.614	16.082	482.58	406.8	331.16	330.59	330.74	330.81	330.51	330.46	330.56	177.4	25.528	25.579	25.435	15.556	15.524	15.625	15.72	15.603	15.562	15.789	25.1	22.563	18.947	13.222	6.4932	-1.4915	-8.4603	-17.351	-26.744	-37.079	-47.966	-56.294	-66.068	-73.37	-83.01	-90.591	-96.766	-102.1	-108.14	-113.16	-118.03	-120.12	-122.84	-126.12	-128.15	-130.26	-131.75	-132.32	-132.63	-133.22	-133.26	-132.95	-131.74	-129.79	-129.56	-128.99	-128.88	-128.71	-127.37	-127.53	-127.83	-129.29	-128.59	-128.72	-128.86	-130.31	-132.03	-132.54	-133.41	-134.52	-134.44	-136.85	-138.05	-139	-139.02	-140.49	-143.42	-143.63	-143.1	-144.29	-144.76	-144.3	-144.4	-142.42	-141.65	-139.09	-139.14	-138.49	-136.42	-134.21	-132.94	-132.33	-128.59	-123.18	-113.86	-104.81	-94.521	-83.652	-75.307	-65.556	-56.171	-47.495	-42.581	-39.998	-36.836	-35.722	-38.652	-42.312	-47.707	-52.908	-60.404	-69.381	-77.772	-87.322	-96.865	-104.01	-109.58	-115.01	-120.33	-123.61	-125.93	-128.59	-131.38	-131.31	-131.31	-131.69	-132.72	-131.96	-130.92	-129.29	-126.87	-123.35	-119.13	-115.54	-110.25	-104.93	-98.598	-92.416	-85.978	-78.655	-71.44	-64.101	-56.798	-50.454	-44.264	-38.071	-32.735	-29.844	-26.835	-25.503	-23.626	-22.646	-23.151	-24.908	-26.392	-28.702	-30.793	-33.663	-36.693	-39.007	-42.141	-44.652	-46.946	-49.389	-52.238	-55.159	-58.831	-61.839	-65.328	-69.413	-74.523	-79.987	-85.633	-91.059	-98.001	-104.38	-109.88	-116.33	-122.38	-126.68	-130.04	-132.36	-133.98	-135.42	-136.06	-136.73	-138.38	-138.93	-138.63	-139.75	-140.8	-141.8	-142.68	-143.6	-144.48	-145.69	-146.94	-146.99	-147.75	-148.57	-149.64	-150.89	-151.16	-152.03	-153.23	-154.83	-155.21
-917.72	-841.72	-771.73	-708.77	-653.78	-606.78	-564.79	-526.79	-490.71	-455.51	-422.31	-392.25	-363.26	-336.26	-311.27	-288.28	-268.11	-250.91	-235.8	-223.8	-210.8	-199.8	-189.8	-180.8	-172.8	-165.73	-160.52	-157.7	-154.8	-152.8	-152.67	-153.5	-157.7	-161.8	-165.08	-167.5	-167.8	-164.8	-158.7	-148.8	-135.8	-118.8	-99.8	-78.635	-57.233	-38.166	-20.096	-4.8969	7.1624	15.944	21.724	24.864	15.809	15.591	15.463	24.663	24.863	25.062	25.2	25.2	24.072	23.654	24.236	24.2	15.2	15.2	15.2	15.2	635.2	635.2	558.2	482.2	482.2	482.2	528.2	574.2	574.2	574.2	513.2	452.2	452.2	452.2	421.2	391.2	391.2	391.2	314.08	238.08	238.27	238.44	207.64	177.21	177.08	177.31	101.71	25.67	25.83	26.028	26.266	16.312	16.089	16.485	16.879	25.816	16.457	5.6556	-6.1466	-17.949	-29.753	-39.765	-50.197	-58.157	-62.96	-64.764	-65.37	-64.974	-64.248	-62.867	-61.776	-59.395	-56.13	-52.365	-48.212	-41.82	-35.591	-28.673	-21.8	-14.02	-6.8478	1.2459	6.8573	13.167	28.21	28.189	181.26	332.9	332.7	332.43	332.27	332.47	332.5	332.24	193.85	56.454	56.173	56.11	269.97	483.03	483	483.45	483.65	483.31	482.77	482.44	406.92	330.68	330.66	330.98	330.63	330.54	330.78	330.74	177.84	25.623	25.62	25.698	25.733	15.676	15.285	15.188	15.384	15.833	24.979	23.885	19.967	16.242	9.6993	2.0658	-5.6947	-15.638	-24.45	-34.95	-45.884	-56.567	-67.1	-76.415	-85.01	-93.111	-101.72	-108.76	-114.41	-120.36	-124.84	-129.49	-132.53	-135.81	-137.61	-140.08	-141.98	-144.48	-145.48	-145.23	-145.03	-144.43	-145.16	-145.45	-144.01	-143.04	-142.69	-143.94	-144.48	-144.45	-143.66	-144.08	-144.49	-146.13	-146.34	-146.04	-147.26	-148.67	-149.73	-150.7	-151.07	-152.4	-153.05	-154.99	-157.05	-157.72	-157.6	-158.91	-161.57	-163.22	-163.01	-162.22	-162.79	-163.38	-163	-161.51	-160.43	-159.84	-157.32	-156.71	-155.99	-154.59	-150.28	-145.65	-140.08	-132.59	-122.59	-111.4	-102.93	-92.8	-84.341	-75.124	-67.355	-60.397	-57.001	-55.864	-56.898	-57.139	-58.472	-63.371	-69.585	-77.418	-84.959	-92.642	-100.47	-107.75	-115.24	-120.76	-125.77	-129.24	-132.5	-137.09	-138.48	-139.65	-139.78	-140.31	-140.18	-140.45	-139.14	-138.2	-136.73	-133.28	-131.24	-128.11	-123.76	-119.19	-114.12	-107.35	-101.93	-94.438	-88.25	-79.733	-72.069	-64.563	-57.402	-50.359	-44.364	-38.265	-34.094	-31.015	-28.745	-27.01	-26.266	-26.349	-26.696	-28.464	-31.357	-33.225	-35.951	-37.675	-40.392	-43.033	-45.436	-46.891	-49.482	-52.106	-55.023	-58.246	-61.111	-64.491	-68.537	-72.623	-77.641	-83.44	-89.325	-95.22	-101.32	-108.88	-115.8	-121.45	-126.51	-131.56	-135.22	-137.89	-140.24	-141.65	-143.25	-143.75	-144.16	-144.89	-145.01	-146.14	-146.69	-147.29	-148	-148.94	-149.87	-151.02	-152.15	-152.02	-152.61	-153.31	-154.47	-155.41	-155.02	-155.92	-157.29	-157.46
-749.33	-674.13	-602.93	-540.8	-489.8	-447.8	-414.8	-387.8	-361.8	-336.8	-315.8	-295.8	-277.8	-259.74	-243.54	-229.34	-216.14	-204.95	-196.8	-189.8	-182.8	-178.69	-174.48	-171.27	-168.06	-166.25	-164.61	-163.58	-161.22	-160.05	-160.25	-161.66	-165.07	-168.48	-170.8	-170.74	-169.53	-164.64	-156.8	-145.8	-129.67	-110.46	-89.631	-67.771	-46.571	-26.172	-8.8428	4.7463	14.334	21.322	24.122	14.821	15.018	15.2	24.375	23.574	21.772	19.971	484.15	635.76	635.34	635	634.96	635.16	635.2	635.2	635.2	635.2	635.2	635.2	558.2	482.2	482.2	482.2	528.2	574.2	574.2	573.99	513.17	452.2	452.2	452.09	420.96	391.16	391.2	390.84	313.76	237.95	238.15	238.25	206.76	176.74	176.94	177.13	101.29	25.49	25.664	25.61	25.768	25.541	15.792	16.187	16.294	16.066	25.302	15.501	5.6977	-5.1061	-14.933	-25.36	-34.516	-42.319	-47.123	-49.928	-51.706	-51.706	-52.338	-52.142	-50.947	-49.744	-46.87	-43.956	-39.564	-34.174	-27.804	-21.8	-16.137	-9.5086	-2.2151	4.1671	11.204	16.196	19.801	23.996	26.189	333.07	332.72	332.26	332.5	333.12	332.97	332.6	194.21	56.628	56.361	56.276	270.55	483.78	483.82	483.58	483.4	483.26	482.71	482.9	406.71	330.62	330.91	331.1	330.71	330.77	331.09	331.23	178.23	25.832	25.619	25.872	26.065	25.847	25.842	25.432	15.459	16.219	25.13	22.2	18.118	12.709	5.1797	-2.6727	-11.248	-21.056	-32.225	-42.869	-53.282	-64.272	-75.267	-85.337	-94.101	-102.23	-111.58	-118.37	-125.03	-131.15	-135.49	-139.29	-142.52	-146.2	-149.65	-152	-153.47	-154.9	-155.31	-156.82	-156.2	-155.39	-155.3	-156.69	-156.48	-155.59	-156.49	-156.48	-157.73	-157.93	-158.97	-158.47	-158.3	-159.61	-160.42	-162.87	-163.02	-163.12	-162.64	-164.88	-167.83	-168.71	-169.06	-171.32	-170.92	-173.4	-175.7	-177.66	-177.85	-178.04	-179.43	-180.95	-180.49	-178.85	-179.26	-179.93	-179.85	-177.91	-176.13	-175.16	-172.77	-171.3	-168.04	-163.51	-157.1	-149.39	-141.77	-133.17	-122.99	-113.02	-106.2	-97.223	-90.014	-84.732	-81.399	-78.717	-77.61	-79.407	-80.882	-84.268	-87.692	-94.884	-100.94	-107.71	-113.65	-120.47	-126.41	-131.19	-135.83	-139.85	-141.22	-144	-145.71	-147.21	-147.89	-148.38	-148.16	-147.13	-146.04	-145.07	-143.18	-141.81	-137.91	-135.45	-131.51	-128.25	-122.5	-116.76	-111.66	-104.82	-97.267	-89.786	-81.443	-73.797	-65.653	-57.852	-51.963	-45.674	-40.174	-36.057	-33.819	-32.281	-30.511	-30.69	-31.137	-32.797	-34.662	-36.568	-39.232	-40.71	-42.284	-44.99	-46.428	-49.248	-51.048	-53.913	-55.682	-58.511	-61.318	-64.126	-67.011	-70.892	-74.724	-80.621	-85.712	-92.692	-98.947	-106.44	-113.14	-120.46	-126.35	-132.58	-137.35	-140.88	-143.92	-146.26	-147.92	-149.59	-149.8	-149.32	-150.51	-151.22	-151.71	-152.25	-153.07	-153.46	-154.11	-155.17	-156.41	-156.08	-156.59	-157.17	-157.69	-158.54	-158.22	-159.09	-159.93	-160.98
-598.35	-526.15	-455.85	-400.53	-358.53	-323.52	-294.52	-273.51	-258.51	-245.5	-234.5	-224.49	-215.48	-207.45	-199.25	-191.04	-183.83	-178.8	-174.79	-171.59	-169.39	-168.19	-168.2	-168.21	-168.62	-168.57	-168.2	-167.05	-166.25	-166.66	-167.06	-169.39	-171.5	-174.3	-175.08	-174.18	-172.37	-166.45	-158.24	-145.03	-129.16	-110.36	-88.39	-66.179	-45.809	162.8	216.39	268.98	15.567	15.341	19.66	22.074	22.2	21.2	19.286	17.485	14.682	11.528	7.067	2.6131	-0.52937	-0.33259	0.86498	4.0608	8.2	12.2	16.2	21.2	24.2	15.2	414.2	376.2	376.2	376.07	428.85	482.63	482.66	482.86	437.05	390.74	390.52	390.64	375.84	361.01	360.6	360.43	321.63	283.82	283.91	283.5	267.41	252.61	252.8	253	207.19	162.11	161.93	162.22	92.993	25.171	25.494	15.753	15.525	15.669	16.057	23.345	14.541	6.7371	-2.7532	-10.989	-18.679	-24.482	-30.287	-33.092	-36.082	-37.508	-38.507	-39.312	-39.117	-38.212	-37.609	-34.308	-30.917	-26.529	-21.141	-15.254	-10.004	-3.9722	2.4164	7.8034	14.063	17.66	21.609	24.802	26.747	26.891	256.38	256.25	294.78	332.97	333.16	332.97	301.33	269.74	269.55	269.82	385.53	499.61	499.33	498.94	490.55	483.25	483.14	483	406.79	330.95	331.27	331.19	330.98	331.08	331.21	331.65	231.43	131.86	131.84	132.31	155.25	178.45	178.31	178.16	102.35	26.318	26.454	26.421	26.517	25.8	25.192	25.988	-28.735	-27.653	-38.98	-51.008	-61.769	-72.394	-83.137	-93.001	-102.68	-112.54	-120.07	-127.05	-134.11	-139.4	-144.52	-148.1	-151.21	-153.89	-157.53	-160.02	-162.1	-162.28	-162.51	-163.65	-164.31	-164.07	-164.39	-165.16	-165.18	-166.7	-168.53	-167.61	-168.36	-169.16	-170.78	-172.02	-172.28	-172.23	-173.01	-174.46	-176.9	-177.64	-176.73	-178.44	-179.27	-182.03	-184.31	-183.67	-185.29	-187.57	-188.62	-191.35	-191.49	-192.21	-192.38	-193.01	-194.77	-194.36	-193.57	-193.32	-194.67	-194.19	-193.72	-190.42	-188.66	-185.91	-181.71	-179.06	-174.71	-167.04	-158.01	-150.77	-143.68	-136.02	-127	-119.63	-113.81	-108.58	-105.86	-103.53	-102.85	-101.79	-102.52	-106.41	-109.74	-112.89	-116.83	-123.21	-127.85	-132.91	-137.45	-141.88	-144.41	-146.39	-149.66	-151.46	-153.34	-153.26	-153.01	-154.06	-153.96	-152.61	-151.55	-150.84	-149.47	-147.38	-144.9	-142.6	-138.83	-135.1	-131.24	-127.18	-121.38	-114.26	-106.99	-99.464	-92.313	-83.148	-75.224	-67.026	-59.378	-52.08	-47.206	-42.888	-39.221	-37.606	-35.94	-36.442	-37.446	-38.24	-40.047	-41.55	-43.074	-44.749	-46.309	-47.894	-49.332	-51.306	-53.297	-56.439	-58.071	-59.694	-61.238	-63.431	-66.39	-68.977	-72.807	-76.923	-83.192	-87.95	-95.426	-102.02	-110.56	-117.45	-124.3	-131.75	-137.28	-142.56	-145.6	-149.21	-151.67	-153.12	-154.46	-154.99	-155.65	-155.06	-155.67	-157.18	-157.74	-158.16	-158.81	-159.46	-160.22	-161.03	-160.46	-160.46	-160.72	-161.64	-161.35	-161.92	-162.72	-163.89
-459.75	-397.35	-344.99	-304	-268	-239.01	-217.01	-199.99	-188.8	-184.8	-182.8	-181.8	-180.8	-178.8	-176.8	-174.8	-171.8	-168.8	-167.8	-166.8	-167.8	-167.8	-168.8	-168.8	-168.65	-169.51	-169.72	-169.8	-168.8	-167.94	-168.05	-170.84	-174.8	-177.8	-178.92	-178.01	-173.8	-168.8	-160.8	-149.9	-135.96	-118.8	-99.8	-79.159	-61.567	299.02	314.73	329.53	329.74	330.01	330.2	330.2	330.2	330.2	330.2	330.16	329.99	329.58	360.38	390.2	390.37	390.57	329.77	-7.0379	-5.844	0.2	7.2	14.046	19.94	24.095	268.92	14.696	14.477	14.259	14.2	14.348	14.544	14.741	14.424	14.2	14.324	14.52	23.716	329.34	329.2	329.3	329.5	329.67	329.26	329.2	329.27	329.47	329.66	329.86	313.75	298.34	298.64	298.64	161.83	25.025	25.218	14.985	14.977	15.366	15.753	16.138	22.385	14.889	8.3966	1.6934	-3.9216	-8.6458	-13.451	-17.257	-20.667	-23.871	-25.677	-27.483	-27.361	-27.783	-26.8	-25.661	-22.272	-17.885	-13.714	-9.3253	-4.7294	0.65951	6.0467	11.432	15.337	19.2	22.416	25.197	26.361	26.172	17.144	17.38	256.58	332.77	332.96	332.86	408.21	483.93	483.88	484.52	501.17	516.07	515.71	515.32	498.94	483.54	483.25	483.1	407.31	331.89	331.7	331.37	331.27	331.16	331.48	331.78	285.31	238.88	239.42	239.75	285.67	331.86	332.02	332.04	179.08	26.986	26.631	26.832	-1.2288	-1.7427	-8.4567	-16.442	-26.336	-37.432	-48.457	-59.533	-71.532	-82.399	-91.867	-101.77	-111.72	-121.06	-129.5	-136.21	-142.01	-147.05	-152	-155.49	-157.7	-160.86	-162.86	-165.24	-167.8	-167.66	-167.58	-167.21	-169.11	-169.77	-171.71	-172.81	-172.88	-174.81	-176	-178.3	-178.56	-180.52	-181	-182.25	-183.68	-185.24	-185.4	-185.06	-187.54	-188.04	-190.3	-190.31	-189.42	-191.23	-192.66	-195.78	-196.21	-196.62	-199.73	-200.61	-201.42	-202.64	-202.86	-203.25	-203.7	-205.61	-206.46	-206.92	-206.18	-204.83	-204.87	-203.23	-201.36	-197.29	-194.5	-190.39	-184.66	-180.46	-173.71	-166.91	-158.82	-153.23	-146.96	-140.68	-135	-130.2	-128.45	-126.5	-125.2	-124.09	-124.47	-125.98	-127.56	-131.18	-134.93	-136.77	-139.57	-144.19	-147.6	-150.98	-151.71	-154.14	-155.21	-157.4	-158.7	-158.4	-158.64	-158.22	-158.04	-157.08	-156.47	-154.83	-154.27	-152.55	-150.96	-148.86	-146.47	-142.87	-139.38	-135.08	-131.02	-124.6	-118	-110.59	-102.79	-94.442	-85.35	-76.143	-67.653	-60.203	-53.713	-49.544	-46.337	-43.625	-42.72	-42.301	-43.632	-45.669	-46.826	-48.315	-48.708	-49.889	-50.709	-52.753	-54.245	-54.875	-56.85	-58.124	-59.554	-60.537	-62.491	-64.721	-65.212	-66.76	-69.988	-74.289	-79.143	-83.837	-90.267	-97.421	-104.94	-113.42	-121.39	-129.29	-135.5	-142.07	-146.33	-150.72	-152.97	-155.24	-157.18	-157.5	-158.29	-159.94	-160.14	-160.3	-160.97	-162.48	-162.91	-163.3	-163.83	-164.24	-164.26	-163.66	-163.98	-164.48	-165.11	-164.79	-165.7	-166.23
-382.8	-332.8	-293.8	-262.8	-233.6	-211.41	-193.21	-180.02	-170.82	-165.8	-163.8	-162.8	-163.8	-164.8	-164.8	-164.8	-163.8	-163.8	-164.8	-165.8	-165.8	-165.8	-164.8	-163.8	-163.8	-163.8	-164.8	-165.8	-165.8	-164.8	-165.8	-167.8	-168.8	-169.8	-169.8	-167.8	-164.8	-160.8	-155.8	-149.8	-141.8	-131.13	-116.54	-101.8	299.2	299	315.16	330.2	330.2	330.2	330.2	330.2	330.2	330.2	330.2	330.05	329.77	329.36	360.2	390.2	390.28	390.63	330.04	269.16	268.98	268.66	268.45	268.64	268.49	268.28	268.2	268.2	268.2	268.2	329.2	390.23	390.43	390.2	359.2	329.2	329.2	24.397	23.2	23.2	329.2	329.2	329.36	329.2	329.2	329.2	329.2	329.33	329.53	329.52	313.2	298.2	298.3	298.49	161.69	24.879	14.611	14.285	14.674	15.061	15.447	15.831	15.531	22.865	17.989	13.375	8.7583	5.1403	1.3844	-2.8313	-6.2297	-9.3167	-11.935	-13.654	-15.8	-15.8	-15.8	-14.8	-12.628	-9.2421	-6.4579	-2.8	1.2	5.2899	9.6759	13.842	16.801	19.992	22.711	23.591	25.685	25.759	25.949	17.139	17.374	17.566	332.76	332.06	408.1	484.12	484.37	485.21	501.21	516.2	516.09	515.72	499.34	483.96	483.57	483.66	408.32	332.47	332.1	331.71	331.33	331.36	331.81	24.624	23.683	20.443	18.063	15.027	13.097	11.018	9.4	7.7716	5.8286	3.5394	0.22203	-3.8122	-8.7455	-14.474	-21.462	-29.653	-38.895	-49.097	-58.898	-70.01	-80.892	-91.874	-101.66	-110.85	-120.28	-128.08	-135.48	-142.8	-147.82	-152.47	-156.46	-159.64	-162.82	-165.51	-166.91	-169.15	-170.36	-170.45	-171.18	-171.99	-173.19	-173.89	-176.82	-179.7	-180.48	-181.34	-182.66	-184.31	-186.69	-189.27	-189.21	-190.48	-191.21	-193.2	-194.41	-194.64	-195.75	-195.91	-197.67	-198.83	-200.11	-199.86	-200.04	-201.09	-202.14	-204.5	-205.33	-205.63	-207.09	-207.3	-208.36	-210.36	-211.82	-212.28	-212.52	-212.75	-213.44	-212.62	-210.95	-209.76	-208.8	-205.75	-201.58	-197.13	-193.44	-188.44	-183.68	-179.15	-173.53	-167.69	-161.97	-157.48	-154.32	-151.09	-147.84	-146.07	-145.83	-144.89	-144.36	-144.42	-145.48	-145.99	-147.6	-149.7	-152.26	-152.9	-154.58	-156.95	-158.36	-159.23	-159.97	-161.55	-162.03	-161.3	-161.35	-161.57	-161	-160.06	-159.63	-159.13	-159.01	-157.39	-155.66	-153.76	-151.05	-149.18	-146.29	-143.15	-138.43	-133.01	-127.31	-120.46	-113.19	-103.16	-95.097	-86.842	-79.525	-72.55	-67.099	-61.432	-57.568	-54.312	-52.369	-52.219	-51.937	-52.75	-53.916	-55.444	-56.591	-57.057	-56.788	-57.177	-57.733	-58.984	-60.245	-61.017	-61.434	-62.675	-63.774	-64.903	-66.025	-66.786	-69.598	-72.143	-76.143	-81.103	-87.134	-92.916	-100.27	-107.59	-114.61	-123.26	-130.84	-137.11	-142.76	-146.9	-151.55	-154.48	-157.32	-159.43	-161.15	-162.06	-162.97	-164.52	-164.56	-164.43	-165.9	-166.64	-166.54	-166.98	-167.23	-166.98	-166.73	-166.77	-167.74	-168.64	-167.85	-167.59
-331.8	-290.8	-257.8	-231.8	-208.62	-190.43	-177.24	-168.04	-161.85	-157.8	-156.8	-156.8	-156.8	-158.8	-159.8	-159.8	-157.8	-157.8	-158.8	-157.8	-156.8	-153.8	-150.8	-147.8	-144.8	-144.8	-145.8	-146.8	-145.8	-144.8	-145.8	-147.8	-150.8	-153.91	-156.81	-155.8	-152.8	-150.8	-147.94	-144.15	-139.52	-133.8	-125.8	-114.8	-99.8	299.2	315.2	330.2	330.2	330.2	-44.8	-43.8	-32.875	329.91	329.7	329.44	329.2	329.2	360.2	390.59	390.97	391.16	330.07	268.66	268.4	268.21	268.11	267.89	267.73	267.92	268.11	268.2	268.2	268.11	328.9	390.08	390.2	390.2	359.2	329.2	329.2	329.2	329.2	329.2	329.2	329.2	329.2	329.2	329.2	329.2	329.2	329.2	329.3	329.2	313.2	298.2	298.2	298.35	161.54	24.4	24.2	14.2	14.37	14.756	15.14	15.112	14.499	14.285	14.67	23.054	18.437	14.818	11.983	7.4883	4.088	1.3486	-1.2706	-2.8915	-4.8	-5.8	-5.8	-5.8	-3.871	-1.6798	1.2	4.2	7.2	10.2	13.304	16.423	19.614	21.571	23.2	24.217	25.374	178.56	178.75	178.94	256.13	332.36	331.86	331.7	407.89	484.2	484.93	485.2	501.2	516.2	516.2	516.13	499.75	484.37	484.06	484.53	409.05	332.88	17.505	17.136	16.751	24.724	22.953	20.249	16.519	13.581	9.5429	5.3285	2.1913	-0.70896	-3.2949	-4.7147	-6.599	-8.982	-12.187	-16.505	-21.251	-26.604	-33.714	-42.046	-51.087	-61.55	-71.671	-82.394	-93.365	-103.2	-113.22	-121.68	-130.37	-137.16	-143.43	-149.84	-153.95	-158.14	-161.49	-164.04	-166.53	-169.76	-171.97	-172.71	-174.09	-173.8	-173.63	-176.33	-177.55	-179.06	-181.46	-184.31	-184.91	-186.8	-187.86	-189.38	-191.78	-193.88	-196.39	-197.09	-197.73	-197.95	-198.86	-200.37	-201.9	-200.94	-201.29	-201.98	-203.35	-204.97	-204.99	-204.17	-205.22	-205.45	-207.36	-208.53	-208.4	-207.98	-210.3	-212.07	-213.34	-213.32	-215.38	-216.26	-216.06	-216.19	-216.45	-214.91	-212.76	-210.06	-207.86	-204.12	-199.92	-195.72	-192.22	-186.75	-182.58	-178.49	-174.21	-170.2	-167.17	-164.64	-163.11	-160.76	-159.35	-158.64	-158.32	-158.27	-158.43	-158.7	-159.66	-160.09	-160.96	-162.57	-162.32	-162.68	-163.13	-164.67	-166.07	-166.07	-165.22	-165.06	-165.12	-164.81	-164.59	-163.41	-162.73	-162.3	-161.03	-161.32	-160.02	-158.72	-157.33	-155.81	-153.58	-151.51	-147.96	-143.58	-138.22	-131.3	-124.06	-115.31	-107.26	-98.717	-91.518	-84.273	-78.72	-73.564	-69.065	-64.67	-62.137	-61.499	-61.808	-62.52	-63.153	-62.952	-64.24	-63.477	-63.369	-63.543	-63.078	-63.609	-63.314	-64.682	-65.001	-65.143	-64.887	-64.93	-65.76	-65.695	-68.031	-69.613	-72.778	-76.202	-82.674	-88.213	-95.114	-101.94	-109.89	-118.69	-125.87	-133.82	-141.01	-145.46	-148.96	-153.01	-156.64	-159.82	-162.14	-163.36	-165.11	-165.81	-166.57	-167.1	-168.8	-168.68	-168.07	-168.16	-169.17	-169.93	-169.02	-168.77	-169.05	-169.47	-169.87	-168.9
-297.8	-263.8	-234.8	-210.8	-193.65	-180.45	-170.26	-164.07	-159.87	-157.82	-157.82	-156.83	-155.83	-153.84	-150.8	-145.8	-140.8	-135.8	-131.8	-126.8	-120.8	-112.8	-105.8	-100.8	-97.8	-96.8	-98.8	-99.8	-98.8	-97.958	-98.163	-99.369	-101.25	-104.06	-108.98	-110.19	-109.39	-109.6	-113.8	-109.8	-109.8	-110.8	-110.8	-108.8	-106.8	-106.8	-105.8	193.2	-85.879	-85.088	-92.294	344.49	344.28	344.2	413.2	481.2	481.2	481.52	497.75	512.94	513.13	513.08	481.86	451.46	451.05	450.65	450.28	450.52	450.92	451.16	489.1	526.74	526.52	526.58	541.77	556.96	557.15	557.2	450.2	344.2	344.08	344.11	420.2	496.2	496.2	496.2	504.11	512.2	512.2	512.2	428.2	344.06	344.2	344.2	382.2	420.2	420.01	420.2	359.2	298.2	298.2	298.2	298.2	298.45	298.57	298.3	161.2	24.2	14.35	14.733	24.114	21.452	18.146	14.567	11.632	10.013	7.3921	5.77	3.1463	2.2	2.0963	1.7626	2.6657	5.042	7.2	9.2	12.2	14.2	17.2	19.235	21.426	178.2	178.2	178.2	216.2	254.37	254.56	254.75	293.94	331.7	331.31	331.5	369.69	408.29	409.07	409.2	417.2	425.2	424.93	425.01	417.16	408.8	408.75	409.1	295.2	181.2	180.93	20.558	20.187	17.949	15.886	11.926	7.4243	4.3532	-1.0344	-5.4093	-10.704	-14.403	-15.724	-18.262	-20.382	-22.611	-25.873	-30.073	-35.582	-42.057	-50.354	-58.212	-67.672	-78.243	-88.238	-99.048	-109.8	-118.59	-127.79	-135.54	-141.54	-147.48	-151.48	-156.71	-159.83	-162.99	-165.84	-168.69	-171.85	-174.07	-177.07	-178.3	-178.77	-178.15	-178.31	-179.61	-181.93	-183.88	-185.94	-187.33	-187.9	-189.31	-190.68	-191.84	-194.39	-196.49	-198.8	-198.76	-200.23	-199.51	-199.51	-200.24	-200.32	-201.41	-201.68	-202.51	-203.44	-204.06	-204.24	-204.38	-203.4	-203.23	-204.33	-205.34	-205.3	-206.02	-207.81	-209.22	-210.11	-210.72	-212.9	-213.66	-215.83	-215.6	-215.44	-215.92	-214.35	-212.37	-209.15	-206.53	-202.96	-199.61	-195.12	-191.82	-188.02	-183.72	-180.82	-178.26	-175.48	-173.63	-172.27	-170.21	-169.32	-168.14	-167.26	-166.38	-166.62	-166.5	-167.65	-167.22	-167.36	-168.41	-168.29	-168.46	-169.53	-169.48	-168.82	-168.8	-168.92	-168.06	-167.78	-167.58	-166.24	-165.73	-165.54	-165.49	-164.03	-163.67	-163.44	-163.11	-163.34	-162.3	-159.76	-158.97	-155.88	-152.56	-148.3	-143	-136.64	-129.41	-122.67	-115.93	-109.82	-102.11	-95.638	-89.643	-85.108	-81.023	-78.343	-75.474	-73.942	-73.327	-72.789	-72.075	-71.655	-70.634	-69.719	-69.746	-68.618	-68.575	-68.539	-67.362	-67.082	-67.586	-67.976	-67.053	-66.54	-66.393	-67.442	-68.532	-71.443	-75.685	-81	-85.721	-91.55	-98.919	-105.98	-114.08	-122.3	-130.16	-136.62	-142.11	-147.33	-151.92	-156.04	-158.67	-161.71	-164.52	-166.82	-167.42	-167.94	-169.26	-169.68	-169.77	-169.66	-169.35	-169.67	-170.1	-170.66	NaN	NaN	-170	NaN	NaN
-284.8	-248.8	-219.8	-197.8	-183.72	-174.72	-167.73	-162.73	-160.74	-158.71	-157.52	-155.33	-150.14	-142.95	-133.8	-124.8	-114.8	-105.8	-95.809	-85.82	-75.022	-62.223	-51.221	-43.031	-39.841	-41.025	-42.228	-44.43	-43.631	-42.8	-42.693	-42.501	-41.443	-46.646	-50.8	-50.8	-50.8	-52.8	-53.8	-56.8	-60.8	-65.8	-72.8	-78.8	-82.899	-84.103	-82.311	-80.52	-74.726	-70.8	-59.8	-63.8	-55.8	-48.8	-47.8	-50.8	-53.731	-63.539	-68.348	-72.157	-74.23	-80.46	634.14	633.73	633.33	633.47	633.87	634.16	634.16	633.8	709.46	785.27	785.27	785.47	754.66	724.85	725.04	725.2	542.2	358.8	358.8	358.99	512.17	664.2	664.2	663.85	679.98	695.16	695.2	695.2	526.82	358.92	359.11	359.2	451.19	541.78	541.87	542.06	558.2	573.2	573.2	573.2	573	573.19	573.2	573.2	298.2	14.2	14.2	14.411	14.791	23.698	21.342	18.2	16.296	14.675	14.054	12.43	10.805	9.9176	8.3841	8.0252	9.3125	10.688	13.061	15.2	16.2	18.2	20.2	22.2	23.2	24.2	25.2	25.2	16.2	16.2	331.36	331.55	331.6	331.2	331.2	331.3	331.59	332.38	332.86	333.05	333.2	332.86	332.61	332.79	332.98	333.16	333.15	333.2	180.2	28.202	28.104	28.028	28.282	28.951	-2.7927	-1.7954	-5.8573	-10.222	-14.59	-19.964	-24.297	-27.866	-30.086	-31.997	-33.791	-36.16	-39.543	-44.574	-50.848	-59.56	-68.819	-78.87	-88.539	-98.913	-108.79	-119.4	-130.1	-139.16	-145.6	-151.57	-154.91	-158.06	-160.77	-162.59	-164.81	-165.84	-168.08	-170.42	-172.33	-175.19	-177.17	-177.6	-177.67	-176.83	-175.68	-176.82	-178.98	-180.94	-183.57	-183.62	-183.26	-183.56	-184.73	-185.9	-189.08	-191.2	-193	-193.97	-194.04	-193.8	-192.83	-193.66	-193.9	-194.75	-195.67	-196.83	-197.54	-197.47	-197.62	-197.23	-195.75	-195.69	-195.92	-197.19	-197.29	-198.08	-200.15	-199.77	-201.19	-203.34	-205.89	-208.86	-210.83	-211.58	-212.86	-213.06	-211.94	-211.47	-209.67	-206.71	-203.29	-200.13	-196.26	-193.17	-189.84	-186.78	-184.23	-182.43	-180.48	-178.81	-176.79	-175.66	-174.28	-173.39	-172.46	-171.17	-170.82	-170.75	-171.22	-171.47	-173.06	-173.04	-173.14	-172.9	-172.74	-172.85	-171.69	-171.49	-171.41	-170.71	-170.74	-169.65	-169.25	-168.03	-167.87	-167.39	-167.11	-167.34	-167.03	-167.16	-166.16	-166.67	-165.6	-164.19	-162.44	-160.55	-157.37	-153.33	-149.61	-144.69	-138.43	-133.12	-127.09	-121.48	-115.39	-109.78	-104.04	-99.3	-95.567	-92.037	-88.738	-86.242	-84.226	-82.001	-80.842	-78.417	-77.305	-76.397	-75.463	-74.26	-72.921	-72.082	-71.216	-70.027	-68.691	-68.732	-68.144	-68.125	-68.82	-69.165	-72.355	-75.517	-79.577	-84.912	-91.074	-96.84	-103.4	-111.38	NaN	NaN	-132.7	-138.17	NaN	NaN	NaN	NaN	-161	-164.22	-166.28	-168.3	NaN	NaN	-170.13	NaN	NaN	NaN	NaN	NaN	NaN	NaN	NaN	NaN	NaN	NaN
-261.8	-231.8	-204.8	-186.8	-175.8	-167.8	-160.8	-155.8	-151.8	-148.74	-145.68	-140.69	-132.69	-120.7	-107.71	-93.715	-80.723	-68.73	-55.738	-41.746	-26.648	-13.457	-2.3079	116.49	116.3	3.2	3.2	2.2	2.2	2.2	3.2	4.2	5.2	3.2	0.2	-2.8	330.2	330.2	483.2	635.2	635.07	634.86	618.66	603.45	603.25	-71.8	-71.8	-65.8	-64.8	-51.8	-50.8	-40.8	-33.8	-27.8	-33.8	-26.8	-28.8	-34.631	-40.643	-45.852	-51.061	-55.267	-61.591	-59.608	-56.307	-41.117	-39.93	-30.859	633.95	633.76	709.57	785.2	785.2	785.35	754.54	724.73	725.16	724.98	541.53	358.49	358.67	358.57	511.94	664	663.59	663.66	679.85	695.03	694.98	694.58	526.6	358.79	358.97	358.96	450.56	541.54	541.73	541.91	558.1	573.2	573.12	572.71	572.85	573.04	573.2	573.2	298.2	24.2	13.979	14.165	14.312	14.2	23.2	22.2	20.2	19.337	18.714	17.089	16.396	15.072	14.512	13.583	14.958	15.332	16.704	19.075	20.2	21.2	22.2	25.865	178.94	331.2	331.2	331.2	331.2	331.2	331.2	331.35	331.2	331.2	16.2	16.2	16.685	17.469	332.66	332.84	24.785	24.373	22.396	20.582	18.768	15.952	13.137	10.201	3.2011	3.0546	-0.043992	-3.4472	-5.98	-9.7952	-14.798	-18.797	-21.799	-25.808	-30.138	-34.511	-37.637	-41.143	-43.729	-45.372	-47.338	-49.703	-53.08	-59	-66.173	-76.115	-87.225	-97.718	-108.27	-118.6	-128.16	-138.49	-148.65	-157.24	-162.84	-165.93	-167.61	-167.5	-167.9	-168.12	-166.92	-166.99	-167.55	-168.04	-167.8	-167.5	-167.39	-166.6	-164.71	-162.14	-161.36	-161.17	-162.04	-164.15	-165.67	-166.74	-166.71	-166.6	-166.81	-168.84	-173.15	-176.56	-178.34	-177.86	-178.64	-178.75	-178.52	-178.71	-179.22	-180.09	-182.41	-183.57	-183.84	-183.32	-183.19	-182.88	-181.5	-180.62	-180.94	-182.46	-183.29	-184.07	-185.89	-187.27	-189.19	-192.17	-196.35	-200.63	-203.81	-206.62	-207.32	-208.25	-208.57	-207.94	-206.25	-204.31	-200.88	-197.79	-194.68	-192.86	-190.02	-186.91	-184.59	-182.58	-181.04	-180.38	-178.59	-177.44	-176.06	-175.07	-173.94	-173.78	-172.48	-172.16	-172.66	-174.32	-175.16	-175.28	-174.95	-174.49	-174.63	-174.63	-174.74	-174.02	-174.02	-173.86	-172.67	-172.82	-172.05	-171.9	-170.41	-169.98	-169.97	-169.91	-169.95	-170.1	-170.16	-169.29	-169.11	-168.96	-167.56	-165.39	-164.32	-161.54	-160.67	-157.48	-154.41	-151.61	-146.61	-141.46	-136.12	-130.07	-124.84	-119.94	-115.17	-110.8	-105.25	-99.906	-97.003	-93.885	-90.312	-87.555	-85.521	NaN	NaN	-80.097	-78.538	-76.813	-75.977	-73.723	-72.522	-70.482	-69.52	-69.435	-69.497	NaN	NaN	-75.326	-79.162	NaN	NaN	NaN	NaN	NaN	NaN	NaN	NaN	NaN	NaN	NaN	NaN	NaN	NaN	NaN	NaN	NaN	NaN	NaN	NaN	NaN	NaN	NaN	NaN	NaN	NaN	NaN	NaN	NaN	NaN	NaN
-234.47	-208.28	-188.09	-173.9	-163.8	-154.8	-146.8	-137.8	-130.8	-123.8	-116.8	-107.8	-96.8	-82.8	-68.8	-54.8	-41.8	-30.8	-19.8	-7.8	3.2071	269.2	192.2	116.2	24.2	24.2	24.2	23.2	23.2	23.2	24.2	15.2	15.2	15.2	24.2	330.2	330.02	329.81	482.61	634.41	634.21	634.2	618.2	603.2	603.2	603.2	328.2	54.2	54.2	54.2	207.2	-24.8	-23.8	-18.8	-13.8	-7.8559	-6.0611	-6.2669	-8.4758	-10.683	-16.8	-21.8	-26.785	-28.596	-25.408	-22.22	-21.032	-15.846	-9.9427	-3.4288	8.2	9.1085	785.09	785.24	754.71	725.16	724.91	13.239	13.2	22.088	21.945	22.32	511.45	663.24	663.34	663.53	679.72	694.72	694.17	694.27	526.46	358.65	358.72	358.32	450.21	541.4	541.58	541.77	557.96	572.91	572.5	572.52	572.7	572.89	573.07	573.2	298.08	23.672	13.821	14.006	14.191	14.2	14.2	14.2	23.2	23.2	22.373	21.747	20.653	19.325	19.2	19.235	19.602	19.974	21.345	21.715	23.083	26.071	25.604	25.213	178.57	330.94	331.2	331.2	331.2	331.2	331.2	331.16	331.2	331.2	331.2	331.31	331.9	332.26	332.45	332.63	18.292	19.2	15.2	12.369	8.5538	3.7383	-0.078532	-3.8955	-8.9951	-13.281	-16.804	-20.208	-22.977	-26.8	-30.799	-33.799	-37.799	-40.8	-43.878	-47.048	-50.127	-52.714	-55.304	-57.891	-59.874	-63.24	-66.583	-72.23	-80.817	-90.799	-101.9	-113.41	-123.79	-134.96	-143.38	-153.89	-162.88	-170.45	-175.35	-177.88	-178.29	-175.58	-173.35	-171.53	-167.44	-164.62	-161.27	-156.53	-150.97	-146.88	-142.89	-137.71	-132.03	-126.75	-122.85	-121.41	-122.42	-122.27	-124.76	-126.98	-128.93	-130.14	-130.94	-134.82	-141.18	-145.58	-147.56	-149.02	-149.51	-150.53	-150.09	-151.64	-153.65	-155.3	-157.15	-158.38	-158.59	-159.39	-158.63	-157.75	-157.51	-157.38	-158.47	-160.59	-162.57	-164	-166.11	-168.85	-173	-179.29	-185.57	-191.37	-195.14	-198.24	-200.22	-200.96	-202.07	-202.49	-201.61	-199.41	-196.22	-194.62	-191.67	-188.72	-186.45	-185.42	-183.39	-181.19	-180.44	-179.84	-177.94	-176.71	-175.58	-175.73	-174.89	-173.61	-173.14	-173.4	-174.02	-174.26	-174.4	-174.16	-175.18	-175.19	-175.51	-176.67	-176.94	-177.04	-176.69	-176.87	-177.18	-176.13	-175.88	-174.68	-174.54	-173.39	-173.53	-172.51	-172.62	-171.55	-171.47	-170.9	-171	-170.65	-169.2	-168.1	-167.18	-166.26	-165.03	-163.76	-162.8	-160.93	-158.21	-154.23	-149.86	-144.59	-139.61	-136.01	NaN	NaN	-119.43	-114.1	NaN	NaN	NaN	-97.912	NaN	NaN	NaN	NaN	NaN	-83.278	-81.407	-79.308	NaN	NaN	NaN	NaN	NaN	NaN	NaN	NaN	NaN	NaN	NaN	NaN	NaN	NaN	NaN	NaN	NaN	NaN	NaN	NaN	NaN	NaN	NaN	NaN	NaN	NaN	NaN	NaN	NaN	NaN	NaN	NaN	NaN	NaN	NaN	NaN	NaN	NaN	NaN	NaN
-206.48	-186.29	-172.11	-160.92	-151.8	-141.8	-130.8	-117.8	-105.8	-94.8	-83.8	-71.8	-58.8	-44.8	-30.8	-17.8	-6.8	1.2	284.2	314.2	314.2	314.12	14.926	14.83	15.016	15.2	15.14	14.941	14.766	14.952	15.138	345.15	344.95	344.75	436.55	527.35	527.2	527.2	672.2	816.2	816.2	816.2	770.2	725.2	725.2	725.2	557.2	389.2	389.2	389.2	443.2	496.12	495.92	495.72	465.51	435.31	7.2	8.2	8.2	8.2	7.2	6.2	5.2	4.3035	4.4917	3.6792	4.8648	5.8345	8.559	12.196	15.799	17.796	19.982	21.711	23.159	22.627	22.2	22.034	21.641	21.325	479.7	479.86	601.8	723.99	13.182	13.399	13.243	12.731	586.92	587.1	533.33	480.47	480.2	480.2	587.2	693.25	693.44	693.63	686.68	678.28	678.2	678.37	564.55	450.74	450.92	450.88	244.48	38.477	13.662	13.847	14.03	14.2	14.2	14.2	14.2	14.2	14.2	14.281	23.2	23.2	23.2	23.2	23.245	23.616	23.985	24.354	24.71	147.34	146.71	146.82	239.19	330.56	330.93	331.2	331.2	331.2	330.87	330.96	331.14	331.2	331.2	331.61	262.92	194.96	195.24	195.21	9.2	10.2	5.2	0.2	-5.6604	-11.477	-16.294	-21.112	-26.372	-30.159	-33.565	-36.382	-39.2	-42.019	-44.837	-47.8	-50.8	-54.151	-56.108	-57.927	-60.701	-63.289	-64.877	-67.8	-71.019	-74.84	-78.982	-85.819	-93.799	-104.8	-115.8	-126.94	-138.3	-149.32	-158.94	-168.71	-177.12	-182.92	-187.11	-189.75	-187.64	-185.05	-179.86	-175	-169.18	-161.39	-153.11	-143.86	-132.21	-122.36	-113.3	-104.44	-94.8	-85.325	-79.159	-75.557	-75.872	-75.8	-77.259	-81.192	-85.257	-88.557	-90.085	-96.238	-103.26	-108.74	-110.75	-112.23	-114.29	-114.54	-116.08	-118.77	-121.01	-123.75	-125.56	-127.4	-127.6	-127.77	-127.98	-127	-126.87	-125.99	-128.36	-130.52	-132.66	-135.37	-137.76	-141.57	-148.01	-155.42	-164.63	-171.24	-178.19	-182.18	-184.01	-187.17	-188.4	-190.3	-189.8	-188.85	-188.22	-186.53	-184.54	-183.42	-182.36	-181.41	-180.21	-179.33	-178.54	-177.42	-176.15	-175.05	-175.47	-174.75	-173.72	-172.49	-172.36	-172.95	-172.9	-172.88	NaN	-173.5	-174.43	-175.55	-177.19	-177.6	-178.71	-179.5	-180.65	-181.1	-181.26	-181.16	NaN	-179.51	-178.26	-177.19	NaN	NaN	-174.81	-173.52	NaN	NaN	NaN	NaN	-168.83	-167.53	-167.28	-166.21	NaN	NaN	-165.96	-165.14	NaN	NaN	NaN	NaN	NaN	NaN	NaN	NaN	NaN	NaN	NaN	NaN	NaN	NaN	NaN	NaN	NaN	NaN	NaN	NaN	NaN	NaN	NaN	NaN	NaN	NaN	NaN	NaN	NaN	NaN	NaN	NaN	NaN	NaN	NaN	NaN	NaN	NaN	NaN	NaN	NaN	NaN	NaN	NaN	NaN	NaN	NaN	NaN	NaN	NaN	NaN	NaN	NaN	NaN	NaN	NaN	NaN	NaN	NaN	NaN	NaN	NaN
-185.5	-169.43	-158.43	-150.43	-143.44	-133.44	-119.45	-104.45	-89.458	-75.463	-61.47	-48.451	-35.265	481.92	482.11	482.2	482.2	482.02	20.823	21.63	23.436	23.409	14.596	14.783	14.653	NaN	14.339	14.525	14.712	14.671	NaN	14.279	14.2	14.2	14.2	14.2	725.2	725.2	862.2	999.2	999.2	999.2	923.2	847.2	847.2	847.2	786.2	725.09	724.89	724.68	678.48	633.28	-8.8	-7.8	-0.8	5.2	10.2	13.2	15.2	15.2	16.2	16.2	17.2	16.203	328.39	328.43	251.22	175.01	174.88	174.49	251.5	327.69	21.431	21.775	22.493	22.135	21.739	21.347	434.2	NaN	601.31	601.49	693.68	784.86	785.04	784.72	631.41	479.6	479.78	479.97	541.15	602.2	602.2	602.2	724.15	846.07	846.3	846.45	815.2	785.2	785.2	785.21	556.4	328.58	328.66	328.27	190.2	53.318	53.502	53.687	38.87	24.052	24.2	14.2	14.2	14.2	13.969	14.151	14.2	14.2	14.2	14.2	14.2	14.256	24.624	24.991	146.98	268.46	268.2	268.45	299.82	330.18	330.55	330.91	331.16	330.76	330.58	330.76	330.95	331.13	331.33	331.53	193.45	56.552	56.914	57.2	-0.8	0.2	-6.8	-12.8	-19.8	-26.693	-32.511	-37.526	-42.459	-45.927	-48.788	-50.606	-52.424	-54.243	-57.063	-58.883	-61.182	-63.521	-64.34	-66.16	-67.589	-68.863	-71.8	-75.038	-79.258	-83.078	-88.899	-95.799	-104.8	-115.8	-126.9	-139	-149.84	-160.96	-171.8	-180.58	-188.06	-193.88	-196.85	-198.29	-196.09	-191.8	-186.8	-178.8	-169.92	-158.22	-144.67	-130.22	-113.8	-97.837	-85.996	-72.172	-57.596	-43.042	-36.393	-30.975	-29.286	-30.431	-32.869	-37.642	-43.775	-45.704	-50.462	-58.648	-67.804	NaN	-75.93	-77.963	-78.781	-79.107	-80.755	-84.201	-87.471	-90.213	-93.206	-95.137	-95.15	-95.279	-94.174	-94.412	-93.174	-92.487	NaN	-94.399	-95.822	-96.604	NaN	NaN	NaN	-117.52	-127.58	NaN	NaN	NaN	-153.24	-158.54	-162.57	-166.51	-169.27	-172.11	-173.3	-173.64	-174.65	-175.58	-175.52	NaN	-176.38	-176.69	-176.73	-175.59	NaN	NaN	-173.51	-172.77	NaN	NaN	NaN	-170.63	NaN	NaN	NaN	NaN	NaN	-175.24	-177.87	-180.23	NaN	NaN	NaN	-186.22	NaN	NaN	NaN	NaN	NaN	NaN	NaN	NaN	NaN	NaN	NaN	NaN	NaN	NaN	NaN	NaN	NaN	NaN	NaN	NaN	NaN	NaN	NaN	NaN	NaN	NaN	NaN	NaN	NaN	NaN	NaN	NaN	NaN	NaN	NaN	NaN	NaN	NaN	NaN	NaN	NaN	NaN	NaN	NaN	NaN	NaN	NaN	NaN	NaN	NaN	NaN	NaN	NaN	NaN	NaN	NaN	NaN	NaN	NaN	NaN	NaN	NaN	NaN	NaN	NaN	NaN	NaN	NaN	NaN	NaN	NaN	NaN	NaN	NaN	NaN	NaN	NaN	NaN	NaN	NaN	NaN	NaN	NaN	NaN
NaN	NaN	NaN	NaN	-136.8	-127.8	-112.8	-97.8	-83.8	-68.8	-55.667	-41.482	481.59	481.58	481.58	18.512	19.319	22.2	23.2	14.2	NaN	NaN	NaN	NaN	NaN	NaN	NaN	NaN	NaN	NaN	NaN	634.2	634.2	634.2	680.2	725.2	NaN	725.2	862.03	998.83	998.87	NaN	923.2	847.04	846.84	846.64	NaN	NaN	724.2	724.2	678.2	NaN	NaN	633.2	8.2	9.2	14.2	17.2	20.2	21.2	22.2	21.878	NaN	NaN	327.81	327.6	250.66	NaN	NaN	174.21	251.39	327.95	328.17	NaN	NaN	266.44	20.2	21.2	NaN	NaN	601.2	601.37	693.55	784.74	784.68	NaN	631.28	479.47	479.65	479.83	NaN	602.2	602.2	601.91	723.75	845.93	NaN	846.2	815.2	785.2	785.2	NaN	556.25	328.43	328.2	328.2	NaN	NaN	53.343	53.526	38.708	23.89	24.071	24.2	24.093	13.695	13.8	13.981	NaN	14.2	14.2	14.2	14.2	NaN	14.261	14.468	14.315	14.2	NaN	NaN	14.439	14.803	15.166	NaN	NaN	330.24	330.39	15.567	15.748	24.928	331.11	19.964	19.781	16.143	10.503	-3.1372	-2.81	-9.8	-17.8	-25.8	-32.8	NaN	-45.729	-51.794	-55.326	-58.147	NaN	-60.8	-61.649	-62.469	-64.289	NaN	NaN	-67.753	-68.573	-69.385	-70.621	-72.23	-75.07	-78.46	-82.498	-87.319	-94.14	NaN	-111.8	-122.89	-135.3	-146.25	NaN	NaN	-179.8	-188.49	-196.32	NaN	NaN	-203.84	-201.8	-197.8	-191.8	-183.8	NaN	-159.92	-144.06	-123.86	-105.8	NaN	NaN	-54.904	-39.385	-24.428	NaN	NaN	-1.7992	-3.1695	-10.266	NaN	NaN	NaN	-31.89	-39.058	NaN	NaN	NaN	NaN	-57.227	-54.817	-55.758	NaN	NaN	-64.776	-66.907	-67.872	NaN	NaN	NaN	-64.765	-63.421	NaN	NaN	NaN	NaN	-52.834	NaN	NaN	NaN	NaN	-75.783	NaN	NaN	NaN	NaN	NaN	-121.23	-128.98	-136.76	NaN	NaN	NaN	-158.8	NaN	NaN	NaN	NaN	NaN	NaN	NaN	NaN	NaN	NaN	NaN	NaN	NaN	NaN	NaN	NaN	NaN	NaN	NaN	NaN	NaN	NaN	NaN	NaN	NaN	NaN	NaN	NaN	NaN	NaN	NaN	NaN	NaN	NaN	NaN	NaN	NaN	NaN	NaN	NaN	NaN	NaN	NaN	NaN	NaN	NaN	NaN	NaN	NaN	NaN	NaN	NaN	NaN	NaN	NaN	NaN	NaN	NaN	NaN	NaN	NaN	NaN	NaN	NaN	NaN	NaN	NaN	NaN	NaN	NaN	NaN	NaN	NaN	NaN	NaN	NaN	NaN	NaN	NaN	NaN	NaN	NaN	NaN	NaN	NaN	NaN	NaN	NaN	NaN	NaN	NaN	NaN	NaN	NaN	NaN	NaN	NaN	NaN	NaN	NaN	NaN	NaN	NaN	NaN	NaN	NaN	NaN	NaN	NaN	NaN	NaN
NaN	NaN	NaN	NaN	NaN	NaN	NaN	NaN	NaN	NaN	NaN	NaN	NaN	NaN	NaN	NaN	NaN	NaN	NaN	NaN	NaN	NaN	NaN	NaN	NaN	NaN	NaN	NaN	NaN	NaN	NaN	NaN	NaN	NaN	NaN	NaN	NaN	NaN	NaN	NaN	NaN	NaN	NaN	NaN	NaN	NaN	NaN	NaN	NaN	NaN	NaN	NaN	NaN	NaN	7.2	12.2	17.2	NaN	NaN	174.92	NaN	NaN	NaN	NaN	12.2	21.37	NaN	NaN	NaN	NaN	251.36	NaN	NaN	NaN	NaN	266.2	NaN	NaN	NaN	NaN	NaN	21.243	12.59	784.75	NaN	NaN	631.2	479.33	479.52	NaN	NaN	NaN	601.66	601.43	NaN	NaN	NaN	846.15	815.2	NaN	NaN	NaN	NaN	328.2	NaN	NaN	NaN	NaN	53.2	53.364	38.546	23.727	NaN	NaN	23.515	23.449	23.631	NaN	NaN	NaN	24.2	24.2	NaN	NaN	NaN	24.2	146.2	NaN	NaN	NaN	NaN	329.42	NaN	NaN	NaN	NaN	25.2	24.369	24.549	24.729	NaN	NaN	16.372	11.732	5.0915	NaN	NaN	-17.839	-26.8	-34.866	NaN	NaN	NaN	-61.726	-64.546	NaN	NaN	NaN	NaN	-66.695	NaN	NaN	NaN	NaN	-67.8	-68.418	-69.056	NaN	NaN	NaN	-82.739	-88.561	NaN	NaN	NaN	-126.31	-138.67	NaN	NaN	NaN	NaN	-193.75	NaN	NaN	NaN	NaN	NaN	-200.8	-194.8	NaN	NaN	NaN	-151.85	-135.8	NaN	NaN	NaN	NaN	-61.852	NaN	NaN	NaN	NaN	NaN	NaN	NaN	NaN	NaN	NaN	NaN	NaN	NaN	NaN	NaN	NaN	-44.78	NaN	NaN	NaN	NaN	NaN	NaN	NaN	NaN	NaN	NaN	NaN	NaN	NaN	NaN	NaN	NaN	NaN	NaN	NaN	NaN	NaN	NaN	NaN	NaN	NaN	NaN	NaN	NaN	NaN	NaN	NaN	NaN	NaN	NaN	NaN	NaN	NaN	NaN	NaN	NaN	NaN	NaN	NaN	NaN	NaN	NaN	NaN	NaN	NaN	NaN	NaN	NaN	NaN	NaN	NaN	NaN	NaN	NaN	NaN	NaN	NaN	NaN	NaN	NaN	NaN	NaN	NaN	NaN	NaN	NaN	NaN	NaN	NaN	NaN	NaN	NaN	NaN	NaN	NaN	NaN	NaN	NaN	NaN	NaN	NaN	NaN	NaN	NaN	NaN	NaN	NaN	NaN	NaN	NaN	NaN	NaN	NaN	NaN	NaN	NaN	NaN	NaN	NaN	NaN	NaN	NaN	NaN	NaN	NaN	NaN	NaN	NaN	NaN	NaN	NaN	NaN	NaN	NaN	NaN	NaN	NaN	NaN	NaN	NaN	NaN	NaN	NaN	NaN	NaN	NaN	NaN	NaN	NaN	NaN	NaN	NaN	NaN	NaN	NaN	NaN	NaN	NaN	NaN	NaN
