-2223	-2214	-2204	-2209	-2217	-2226	-2236	-2246	-2257	-2267	-2271	-2282	-2290	-2293	-2291	-2287	-2281	-2273	-2263	-2254	-2246	-2226	-2218	-2200	-2183	-2164	-2143	-2134	-2121	-2111	-2099	-2085	-2070	-2042	-2030	-2011	-1993	-1973	-1952	-1929	-1909	-1894	-1876	-1838	-1824	-1808	-1777	-1746	-1718	-1699	-1675	-1645	-1635	-1625	-1613	-1597	-1576	-1551	-1529	-1511	-1477	-1424	-1398	-1328	-1258	-1229	-1108	-1024	-965	-924	-846	-768	-703	-626	-552	-512	-466	-432	-407	-387	-368	-350	-331	-320	-301	-292	-284	-278	-272	-266	-260	-253	-244	-235	-225	-214	-195	-184	-179	-174	-170	-165	-160	-155	-153	-151	-150	-149	-148	-146	-144	-141	-140	-141	-143	-144	-146	-148	-150	-151	-152	-153	-160	-172	-173	-176	-180	-185	-192	-200	-233	-262	-271	-278	-306	-317	-327	-335	-345	-353	-368	-373	-378	-385	-391	-396	-400	-404	-407	-409	-411	-413	-414	-416	-418	-420	-424	-428	-433	-438	-442	-446	-448	-451	-453	-455	-457	-458	-460	-462	-464	-466	-467	-468	-468	-470	-473	-476	-478	-480	-482	-483	-485	-486	-487	-488	-488	-489	-488	-487	-485	-484	-482	-481	-481	-481	-480	-480	-479	-479	-478	-477	-476	-475	-474	-473	-472	-471	-470	-468	-466	-465	-463	-462	-460	-459	-457	-456	-454	-453	-450	-447	-443	-438	-434	-428	-421	-413	-409	-405	-402	-399	-397	-395	-393	-390	-387	-382	-379	-377	-374	-371	-367	-363	-358	-354	-350	-347	-343	-340	-337	-333	-329	-325	-322	-318	-314	-310	-306	-302	-297	-292	-288	-285	-282	-280	-279	-281	-286	-297	-299	-301	-304	-306	-307	-309	-310	-310	-311	-311	-311	-310	-310	-309	-309	-310	-311	-313	-314	-314	-315	-315	-314	-313	-313	-312	-310	-309	-308	-307	-304	-299	-293	-287	-282	-277	-271	-267	-264	-262	-261	-261	-261	-262	-264	-265	-267	-269	-270	-272	-273	-274	-275	-275	-276	-277	-277	-278	-279	-279	-280	-282	-283	-284	-286	-287	-287	-287	-286	-285	-283	-279	-276	-272	-268	-264	-261	-258	-256	-254	-252	-251	-250	-250	-249	-249	-250	-251	-251	-252
-2247	-2228	-2210	-2206	-2210	-2217	-2225	-2234	-2246	-2258	-2263	-2276	-2286	-2291	-2292	-2291	-2288	-2282	-2275	-2268	-2262	-2246	-2240	-2225	-2211	-2195	-2177	-2171	-2161	-2153	-2144	-2133	-2121	-2097	-2089	-2073	-2058	-2041	-2022	-2001	-1981	-1963	-1943	-1903	-1886	-1868	-1836	-1805	-1777	-1758	-1735	-1706	-1695	-1686	-1673	-1658	-1639	-1616	-1594	-1577	-1545	-1493	-1466	-1395	-1324	-1291	-1172	-1086	-1021	-984	-908	-825	-752	-667	-587	-541	-483	-439	-412	-392	-374	-356	-337	-325	-305	-294	-285	-277	-269	-261	-252	-242	-232	-221	-210	-197	-179	-167	-161	-155	-147	-141	-135	-130	-127	-125	-125	-125	-125	-123	-121	-118	-116	-115	-116	-116	-116	-117	-116	-116	-116	-115	-120	-130	-130	-130	-131	-134	-139	-146	-176	-204	-213	-223	-251	-265	-273	-282	-289	-299	-313	-318	-320	-326	-330	-333	-337	-340	-341	-343	-346	-350	-354	-357	-359	-363	-369	-374	-380	-386	-391	-396	-401	-405	-409	-413	-414	-418	-422	-426	-431	-434	-437	-440	-442	-444	-448	-450	-453	-455	-456	-458	-461	-462	-464	-464	-465	-467	-469	-470	-471	-472	-473	-474	-476	-476	-476	-477	-477	-478	-478	-478	-477	-477	-477	-477	-476	-475	-474	-473	-471	-470	-468	-466	-465	-463	-461	-459	-457	-455	-452	-449	-445	-440	-435	-430	-422	-414	-409	-404	-401	-398	-395	-393	-391	-388	-385	-381	-377	-375	-372	-369	-365	-361	-356	-352	-347	-344	-341	-338	-334	-330	-327	-323	-320	-316	-312	-308	-305	-301	-296	-292	-287	-283	-279	-276	-274	-275	-281	-291	-295	-299	-304	-307	-309	-311	-312	-313	-313	-313	-313	-313	-312	-312	-312	-313	-314	-315	-315	-315	-315	-314	-313	-312	-311	-309	-308	-307	-305	-304	-301	-296	-290	-283	-278	-272	-267	-263	-259	-257	-256	-255	-255	-255	-256	-257	-258	-259	-259	-260	-261	-261	-261	-260	-260	-260	-259	-258	-258	-257	-257	-257	-257	-257	-257	-257	-258	-258	-257	-256	-255	-254	-252	-250	-248	-246	-245	-244	-242	-241	-240	-239	-239	-238	-238	-238	-239	-240	-240	-241
-2314	-2284	-2259	-2244	-2236	-2236	-2238	-2242	-2250	-2258	-2263	-2275	-2285	-2291	-2294	-2294	-2292	-2288	-2283	-2278	-2274	-2261	-2258	-2246	-2236	-2223	-2209	-2205	-2198	-2193	-2186	-2178	-2169	-2149	-2145	-2133	-2121	-2108	-2089	-2067	-2046	-2026	-2001	-1959	-1937	-1916	-1883	-1852	-1823	-1804	-1781	-1753	-1741	-1731	-1718	-1703	-1684	-1661	-1638	-1618	-1586	-1535	-1504	-1432	-1360	-1321	-1206	-1117	-1053	-1010	-932	-847	-767	-680	-598	-545	-486	-443	-415	-399	-382	-365	-346	-332	-312	-301	-291	-281	-270	-260	-248	-237	-225	-213	-200	-187	-168	-155	-147	-139	-131	-125	-119	-115	-112	-111	-111	-111	-111	-109	-106	-102	-100	-98	-97	-95	-94	-93	-91	-89	-87	-85	-88	-97	-96	-97	-99	-101	-103	-108	-134	-160	-169	-178	-206	-220	-229	-238	-243	-248	-260	-263	-265	-270	-273	-276	-280	-280	-279	-280	-283	-286	-290	-293	-297	-302	-309	-315	-323	-330	-336	-342	-349	-354	-360	-364	-368	-373	-379	-385	-391	-396	-400	-404	-407	-410	-414	-417	-420	-423	-425	-427	-430	-432	-433	-434	-435	-437	-440	-445	-448	-452	-455	-459	-461	-462	-463	-464	-466	-468	-470	-472	-472	-473	-473	-474	-474	-474	-474	-473	-472	-470	-469	-468	-466	-464	-462	-460	-458	-456	-453	-450	-446	-441	-436	-430	-422	-414	-409	-404	-400	-397	-394	-392	-390	-387	-384	-379	-376	-374	-371	-368	-363	-359	-354	-350	-345	-342	-339	-336	-332	-328	-325	-321	-318	-314	-311	-307	-304	-300	-296	-291	-286	-280	-275	-270	-267	-266	-271	-282	-287	-292	-299	-304	-307	-309	-311	-311	-310	-310	-310	-310	-310	-310	-310	-311	-312	-312	-313	-312	-312	-311	-309	-308	-306	-305	-303	-302	-300	-299	-296	-290	-283	-277	-271	-266	-261	-257	-254	-251	-250	-249	-248	-248	-248	-248	-248	-248	-248	-248	-248	-247	-246	-245	-244	-243	-241	-239	-237	-235	-234	-232	-230	-229	-227	-226	-226	-225	-225	-225	-226	-227	-228	-229	-229	-229	-230	-230	-230	-229	-229	-228	-228	-228	-228	-228	-229	-229	-230	-231
-2379	-2346	-2316	-2293	-2276	-2267	-2261	-2259	-2260	-2264	-2267	-2277	-2287	-2292	-2295	-2296	-2295	-2292	-2289	-2286	-2283	-2273	-2272	-2264	-2257	-2248	-2237	-2235	-2231	-2228	-2223	-2217	-2211	-2194	-2191	-2182	-2174	-2161	-2143	-2119	-2095	-2072	-2044	-1999	-1972	-1949	-1916	-1884	-1855	-1835	-1811	-1784	-1770	-1758	-1744	-1728	-1709	-1686	-1664	-1645	-1612	-1560	-1525	-1449	-1372	-1326	-1208	-1115	-1042	-985	-902	-818	-742	-660	-582	-537	-490	-455	-429	-410	-392	-375	-355	-341	-321	-309	-297	-285	-273	-260	-246	-232	-219	-206	-192	-178	-158	-144	-135	-127	-120	-115	-111	-108	-106	-105	-105	-105	-103	-101	-97	-93	-90	-87	-84	-81	-78	-74	-71	-67	-64	-61	-63	-70	-70	-71	-73	-76	-78	-82	-106	-128	-137	-147	-172	-185	-196	-205	-210	-217	-227	-230	-233	-237	-239	-241	-240	-237	-233	-231	-229	-228	-231	-234	-239	-246	-253	-260	-269	-278	-284	-291	-298	-304	-311	-317	-322	-328	-334	-341	-347	-353	-358	-363	-367	-372	-377	-381	-385	-388	-390	-392	-394	-395	-396	-396	-396	-399	-405	-412	-418	-425	-430	-435	-439	-442	-445	-448	-450	-455	-459	-462	-463	-464	-464	-466	-465	-465	-465	-466	-465	-464	-463	-463	-462	-461	-459	-457	-456	-454	-451	-448	-444	-440	-435	-429	-421	-414	-409	-405	-401	-397	-395	-392	-390	-386	-383	-378	-375	-373	-370	-367	-363	-358	-353	-349	-345	-341	-338	-335	-331	-327	-324	-320	-316	-312	-309	-306	-302	-299	-294	-289	-283	-276	-270	-262	-257	-255	-258	-268	-273	-279	-286	-292	-296	-299	-301	-300	-300	-300	-300	-300	-301	-302	-302	-303	-304	-306	-306	-306	-305	-304	-302	-301	-299	-298	-296	-294	-292	-291	-287	-282	-275	-269	-264	-259	-254	-250	-247	-245	-243	-242	-241	-240	-240	-239	-239	-238	-237	-237	-236	-234	-233	-232	-230	-228	-225	-222	-219	-216	-213	-210	-207	-204	-201	-199	-197	-196	-196	-198	-201	-204	-207	-210	-213	-215	-217	-218	-219	-219	-219	-219	-219	-219	-219	-220	-220	-220	-221	-221
-2432	-2394	-2359	-2331	-2308	-2292	-2281	-2275	-2272	-2273	-2274	-2282	-2290	-2295	-2297	-2298	-2297	-2295	-2292	-2291	-2290	-2282	-2283	-2278	-2273	-2268	-2260	-2260	-2258	-2256	-2253	-2248	-2242	-2227	-2223	-2213	-2202	-2189	-2168	-2141	-2113	-2086	-2056	-2012	-1983	-1959	-1928	-1898	-1870	-1849	-1825	-1797	-1781	-1767	-1751	-1733	-1713	-1690	-1667	-1646	-1612	-1557	-1514	-1433	-1350	-1294	-1173	-1076	-999	-936	-854	-777	-711	-637	-568	-530	-494	-464	-438	-417	-399	-381	-361	-345	-324	-311	-297	-284	-270	-256	-241	-226	-212	-198	-184	-169	-150	-136	-126	-119	-112	-108	-105	-103	-101	-101	-101	-101	-99	-96	-92	-87	-83	-79	-75	-70	-65	-60	-54	-49	-44	-40	-41	-47	-46	-47	-49	-52	-56	-60	-82	-103	-112	-121	-144	-156	-166	-175	-181	-188	-197	-200	-202	-206	-207	-205	-201	-195	-189	-184	-179	-176	-176	-179	-185	-192	-201	-209	-220	-231	-240	-246	-253	-259	-266	-272	-276	-282	-287	-293	-299	-305	-311	-317	-324	-331	-338	-344	-349	-353	-355	-356	-357	-359	-360	-361	-362	-366	-373	-382	-390	-397	-404	-410	-415	-418	-421	-424	-427	-431	-436	-440	-441	-441	-443	-444	-445	-444	-446	-446	-447	-447	-447	-448	-448	-448	-447	-446	-446	-445	-443	-441	-437	-434	-430	-425	-418	-412	-408	-404	-401	-398	-395	-392	-389	-386	-382	-378	-374	-372	-369	-366	-363	-359	-354	-350	-346	-342	-339	-335	-331	-327	-323	-319	-315	-311	-307	-303	-300	-296	-291	-285	-279	-271	-262	-253	-246	-241	-242	-249	-253	-258	-264	-270	-275	-278	-279	-280	-279	-279	-280	-281	-282	-283	-285	-287	-289	-291	-292	-293	-292	-292	-291	-290	-289	-287	-286	-284	-283	-281	-278	-272	-266	-261	-256	-251	-247	-243	-240	-238	-236	-235	-234	-233	-232	-231	-230	-229	-227	-226	-225	-223	-221	-219	-218	-215	-213	-209	-206	-203	-200	-196	-193	-189	-186	-183	-181	-179	-180	-182	-185	-189	-194	-198	-202	-205	-207	-209	-211	-211	-212	-212	-212	-212	-212	-212	-213	-213	-213	-212
-2480	-2437	-2398	-2364	-2337	-2317	-2302	-2292	-2286	-2284	-2282	-2288	-2294	-2298	-2299	-2300	-2299	-2296	-2294	-2294	-2294	-2288	-2291	-2288	-2286	-2283	-2277	-2278	-2277	-2276	-2273	-2268	-2262	-2247	-2241	-2229	-2216	-2201	-2175	-2143	-2110	-2081	-2049	-2004	-1973	-1949	-1921	-1894	-1868	-1847	-1822	-1792	-1774	-1756	-1737	-1715	-1692	-1665	-1639	-1613	-1573	-1514	-1465	-1381	-1293	-1228	-1109	-1012	-933	-871	-795	-727	-671	-609	-554	-524	-494	-468	-445	-423	-402	-382	-361	-343	-322	-307	-292	-278	-264	-249	-234	-220	-206	-192	-177	-163	-144	-131	-122	-114	-109	-105	-103	-102	-101	-101	-100	76	76	76	-85	-85	-80	-74	-69	-62	-56	-49	-41	-35	-28	-23	-23	-26	-26	-26	-28	-31	-35	-40	-60	-80	-89	-98	-120	-130	-140	-148	-153	-159	-167	-169	-171	-174	-173	-171	-166	-158	-151	-146	-141	-137	-137	-139	-145	-153	-162	-170	-182	-194	-203	-211	-217	-224	-230	-234	-237	-241	-245	-249	-253	-258	-264	-272	-281	-290	-299	-307	-313	-318	-320	-322	-323	-324	-326	-328	-331	-336	-344	-352	-361	-370	-378	-385	-391	-395	-398	-400	-403	-406	-408	-411	-413	-413	-414	-415	-415	-417	-418	-419	-421	-423	-424	-426	-427	-428	-429	-429	-430	-430	-429	-428	-426	-424	-422	-418	-413	-408	-405	-402	-399	-396	-394	-391	-388	-385	-381	-377	-374	-372	-369	-366	-363	-359	-355	-351	-347	-343	-340	-336	-331	-327	-323	-318	-314	-310	-305	-302	-298	-294	-288	-282	-275	-266	-256	-245	-235	-228	-226	-229	-230	-232	-237	-242	-246	-250	-252	-253	-253	-254	-254	-255	-257	-259	-262	-265	-268	-271	-273	-275	-276	-276	-276	-276	-275	-275	-274	-273	-272	-270	-267	-262	-257	-252	-247	-243	-239	-236	-233	-231	-229	-228	-227	-225	-224	-223	-221	-220	-219	-217	-215	-213	-211	-209	-207	-205	-203	-200	-198	-195	-192	-188	-184	-181	-178	-175	-172	-171	-172	-174	-178	-182	-186	-191	-195	-198	-201	-203	-205	-206	-206	-207	-207	-207	-207	-207	-207	-206	-205	-204
-2517	-2473	-2432	-2394	-2363	-2340	-2322	-2308	-2300	-2295	-2292	-2295	-2299	-2301	-2302	-2301	-2300	-2298	-2296	-2296	-2297	-2293	-2296	-2294	-2294	-2292	-2288	-2289	-2288	-2287	-2284	-2279	-2272	-2256	-2246	-2230	-2212	-2189	-2158	-2120	-2087	-2055	-2022	-1979	-1952	-1929	-1904	-1876	-1850	-1828	-1802	-1771	-1749	-1726	-1702	-1675	-1644	-1612	-1581	-1549	-1503	-1440	-1385	-1299	-1212	-1144	-1029	-935	-861	-803	-735	-674	-626	-575	-530	-507	-482	-459	-438	-416	-394	-373	-352	-336	-314	-299	-284	-270	-255	-240	-225	-212	-198	-185	-171	-157	-139	-126	-118	-111	-106	-103	-102	-101	-101	-100	91	152	152	152	-86	-85	-79	-73	-66	-57	-49	-41	-32	-23	-16	-9	-18	-24	-24	-22	-11	-14	-18	-23	-42	-59	-68	-77	-97	-107	-116	-123	-128	-134	-141	-143	-144	-146	-146	-143	-138	-132	-127	-121	-116	-113	-112	-113	-117	-124	-133	-142	-154	-166	-176	-183	-190	-195	-200	-203	-205	-206	-208	-209	-212	-216	-222	-230	-239	-249	-260	-269	-276	-281	-286	-289	-291	-293	-295	-298	-302	-307	-314	-323	-332	-342	-350	-359	-366	-371	-374	-376	-378	-381	-383	-385	-387	-389	-390	-390	-390	-391	-393	-394	-395	-397	-400	-402	-404	-406	-408	-410	-412	-413	-414	-415	-414	-414	-412	-410	-407	-403	-401	-398	-395	-393	-391	-389	-386	-383	-380	-377	-374	-372	-369	-366	-363	-360	-356	-352	-348	-345	-341	-337	-332	-327	-323	-319	-314	-310	-306	-301	-297	-293	-288	-282	-275	-265	-254	-242	-230	-220	-215	-214	-212	-211	-213	-216	-220	-223	-224	-226	-227	-229	-229	-230	-232	-235	-238	-242	-246	-250	-253	-255	-256	-258	-259	-260	-261	-261	-261	-261	-260	-258	-256	-252	-247	-242	-238	-234	-231	-228	-226	-224	-222	-221	-219	-218	-217	-215	-214	-212	-211	-209	-207	-204	-203	-201	-199	-198	-196	-195	-193	-191	-188	-185	-181	-178	-174	-171	-169	-168	-169	-171	-174	-178	-182	-186	-190	-194	-197	-199	-201	-202	-203	-203	-203	-203	-203	-203	-202	-201	-200	-198
-2537	-2493	-2452	-2416	-2384	-2359	-2339	-2323	-2313	-2306	-2301	-2302	-2304	-2304	-2304	-2302	-2301	-2299	-2297	-2297	-2298	-2295	-2298	-2298	-2297	-2296	-2292	-2294	-2292	-2291	-2287	-2281	-2271	-2253	-2239	-2219	-2194	-2164	-2127	-2089	-2052	-2018	-1984	-1944	-1918	-1897	-1870	-1843	-1816	-1793	-1765	-1732	-1705	-1677	-1647	-1614	-1578	-1536	-1495	-1455	-1405	-1336	-1276	-1191	-1111	-1048	-944	-858	-791	-739	-677	-621	-577	-535	-499	-485	-463	-443	-424	-405	-383	-360	-335	-319	-300	-285	-271	-258	-244	-231	-218	-205	-192	-179	-165	-152	-135	-122	-114	-109	-104	-102	-100	-100	-100	-100	-101	-101	-100	-98	-93	-88	-81	-74	-65	-55	-45	-35	-25	-15	-6	-15	-17	-22	-22	-20	-19	-16	-5	-10	-26	-42	-50	-59	-77	-87	-95	-102	-107	-112	-118	-120	-122	-124	-124	-122	-120	-116	-112	-108	-104	-101	-101	-102	-105	-110	-117	-126	-135	-146	-154	-161	-168	-172	-176	-179	-179	-180	-180	-180	-182	-186	-192	-199	-208	-217	-227	-236	-243	-248	-252	-255	-259	-261	-264	-267	-272	-278	-284	-292	-301	-311	-320	-330	-337	-344	-348	-352	-355	-357	-360	-362	-365	-367	-369	-369	-370	-371	-373	-374	-376	-378	-380	-382	-384	-387	-389	-392	-395	-398	-400	-402	-403	-403	-403	-402	-399	-396	-395	-393	-391	-389	-388	-386	-384	-381	-379	-376	-373	-371	-369	-366	-363	-360	-356	-352	-349	-345	-341	-337	-333	-329	-324	-320	-316	-311	-307	-303	-299	-296	-291	-286	-279	-270	-259	-247	-234	-222	-214	-210	-205	-201	-201	-202	-204	-206	-207	-208	-209	-209	-210	-211	-213	-215	-218	-222	-226	-231	-234	-236	-239	-241	-243	-245	-246	-247	-248	-248	-247	-247	-245	-241	-237	-233	-229	-226	-223	-220	-218	-216	-215	-214	-213	-212	-210	-209	-208	-206	-204	-202	-200	-198	-196	-195	-193	-192	-191	-190	-189	-187	-185	-182	-179	-175	-171	-169	-167	-166	-167	-169	-172	-176	-180	-184	-188	-191	-194	-197	-198	-200	-200	-201	-201	-201	-201	-200	-199	-198	-196	-194
-2544	-2502	-2464	-2430	-2400	-2373	-2352	-2335	-2323	-2315	-2309	-2308	-2308	-2307	-2305	-2303	-2300	-2298	-2296	-2296	-2297	-2294	-2297	-2297	-2296	-2295	-2291	-2291	-2288	-2285	-2279	-2269	-2256	-2234	-2216	-2191	-2162	-2126	-2088	-2050	-2013	-1977	-1943	-1903	-1877	-1853	-1823	-1794	-1766	-1739	-1708	-1672	-1641	-1607	-1568	-1528	-1483	-1433	-1382	-1335	-1280	-1213	-1154	-1079	-1007	-951	-861	-784	-723	-674	-620	-574	-535	-497	-470	-462	-443	-422	-400	-382	-363	-338	-311	-297	-281	-268	-255	-243	-232	-220	-209	-197	-185	-173	-160	-146	-131	-119	-111	-106	-102	-100	-99	-99	-100	-100	-101	-101	-101	-99	-95	-89	-83	-75	-65	-54	-43	-32	-20	-9	-14	-14	-16	-20	-20	-19	-17	-15	-13	-11	-15	-29	-36	-44	-60	-69	-77	-84	-89	-94	-101	-103	-105	-108	-109	-108	-107	-103	-100	-95	-91	-88	-88	-89	-92	-97	-105	-113	-122	-130	-137	-143	-148	-152	-155	-157	-158	-158	-158	-159	-161	-164	-169	-176	-184	-192	-200	-208	-214	-218	-221	-223	-226	-229	-232	-236	-240	-247	-254	-262	-271	-281	-291	-301	-310	-317	-322	-326	-329	-332	-335	-338	-342	-345	-348	-350	-352	-354	-357	-359	-361	-362	-364	-365	-366	-368	-371	-374	-378	-382	-385	-388	-390	-391	-392	-392	-390	-388	-388	-386	-386	-385	-384	-383	-381	-380	-378	-375	-373	-371	-369	-366	-363	-359	-355	-352	-348	-344	-341	-338	-334	-330	-326	-322	-318	-314	-311	-307	-303	-300	-296	-291	-286	-278	-269	-258	-245	-233	-223	-216	-208	-203	-200	-199	-198	-199	-200	-200	-200	-200	-200	-201	-202	-204	-206	-208	-211	-214	-217	-220	-222	-225	-228	-231	-233	-234	-235	-236	-236	-235	-233	-230	-227	-223	-220	-217	-215	-213	-211	-210	-209	-208	-207	-206	-205	-203	-202	-201	-199	-197	-195	-193	-192	-190	-189	-188	-187	-186	-185	-183	-181	-179	-176	-173	-170	-167	-166	-166	-167	-169	-172	-175	-180	-184	-187	-191	-193	-196	-197	-199	-199	-200	-200	-200	-200	-199	-198	-196	-194	-191
-2544	-2505	-2468	-2437	-2407	-2381	-2359	-2342	-2330	-2321	-2314	-2312	-2310	-2307	-2305	-2301	-2299	-2296	-2294	-2292	-2293	-2290	-2292	-2292	-2291	-2288	-2283	-2281	-2275	-2268	-2259	-2245	-2226	-2199	-2175	-2146	-2114	-2079	-2041	-2003	-1966	-1931	-1895	-1855	-1823	-1794	-1762	-1730	-1698	-1665	-1630	-1595	-1559	-1517	-1471	-1422	-1372	-1315	-1254	-1201	-1148	-1088	-1037	-970	-908	-859	-781	-713	-655	-608	-558	-519	-491	-446	-415	-400	-378	-359	-339	-316	-312	-298	-283	-275	-263	-251	-240	-229	-219	-209	-199	-188	-177	-165	-153	-141	-127	-116	-109	-104	-100	-98	-98	-99	-99	-100	-101	-101	-101	-100	-96	-90	-83	-75	-65	-53	-41	-29	-16	-5	-13	-13	-15	-18	-18	-17	-16	-14	-12	-11	-6	-18	-25	-33	-47	-55	-62	-69	-74	-80	-86	-89	-91	-95	-96	-96	-94	-90	-86	-82	-78	-75	-75	-77	-82	-88	-95	-102	-110	-118	-124	-128	-133	-136	-138	-140	-140	-141	-142	-143	-145	-148	-152	-158	-166	-173	-180	-187	-192	-195	-197	-199	-201	-204	-207	-210	-214	-220	-226	-234	-243	-253	-263	-274	-283	-290	-296	-300	-304	-308	-311	-315	-320	-325	-329	-333	-336	-339	-342	-345	-346	-347	-348	-348	-349	-350	-353	-356	-359	-363	-367	-371	-374	-376	-377	-379	-379	-379	-380	-380	-380	-380	-380	-379	-379	-378	-376	-374	-372	-371	-368	-366	-362	-359	-355	-351	-348	-344	-341	-339	-336	-332	-329	-325	-322	-318	-314	-311	-307	-304	-301	-297	-293	-287	-280	-271	-261	-250	-239	-230	-221	-213	-207	-203	-200	-199	-198	-198	-197	-197	-197	-198	-198	-199	-199	-200	-201	-202	-204	-207	-209	-212	-215	-218	-220	-222	-223	-224	-224	-224	-223	-220	-217	-215	-212	-210	-208	-206	-205	-204	-203	-202	-202	-201	-200	-199	-198	-197	-195	-193	-192	-190	-189	-188	-186	-185	-184	-183	-182	-180	-179	-176	-174	-172	-169	-168	-167	-167	-168	-170	-173	-177	-181	-185	-188	-192	-194	-196	-198	-199	-199	-200	-200	-200	-200	-199	-198	-196	-193	-190
-2538	-2504	-2471	-2441	-2414	-2389	-2367	-2349	-2335	-2325	-2317	-2312	-2309	-2305	-2301	-2297	-2294	-2291	-2288	-2287	-2286	-2283	-2284	-2282	-2279	-2274	-2267	-2260	-2251	-2238	-2221	-2200	-2175	-2143	-2115	-2083	-2050	-2012	-1973	-1934	-1896	-1861	-1827	-1788	-1755	-1722	-1685	-1647	-1606	-1566	-1531	-1484	-1436	-1386	-1334	-1280	-1227	-1175	-1126	-1068	-1017	-963	-915	-857	-802	-759	-695	-637	-584	-538	-485	-446	-414	-380	-350	-330	-313	-302	-293	-289	-279	-268	-260	-253	-244	-235	-226	-216	-206	-197	-187	-178	-169	-159	-148	-137	-125	-116	-109	-105	-101	-99	-98	-98	-99	-100	-100	-100	-99	-96	-92	-86	-80	-72	-63	-52	-39	-26	-14	-4	-12	-12	-13	-16	-16	-15	-14	-13	-12	-10	-14	-11	-18	-24	-36	-43	-50	-56	-61	-66	-72	-75	-78	-81	-82	-81	-80	-77	-74	-72	-70	-70	-70	-72	-75	-80	-87	-93	-100	-106	-111	-116	-119	-122	-124	-126	-127	-128	-129	-130	-133	-136	-140	-144	-149	-155	-160	-165	-170	-173	-176	-179	-182	-184	-187	-190	-193	-198	-205	-212	-221	-229	-237	-245	-253	-260	-267	-273	-278	-282	-286	-291	-297	-303	-309	-315	-319	-323	-326	-328	-330	-331	-331	-331	-332	-333	-335	-336	-338	-341	-344	-348	-352	-356	-359	-362	-364	-367	-370	-372	-373	-374	-375	-375	-375	-375	-374	-373	-371	-370	-368	-365	-362	-359	-356	-353	-350	-347	-344	-341	-338	-335	-332	-329	-325	-322	-318	-314	-311	-308	-304	-301	-297	-293	-288	-281	-274	-266	-258	-250	-241	-231	-223	-216	-210	-205	-202	-200	-198	-197	-197	-196	-196	-196	-196	-196	-196	-197	-199	-200	-201	-203	-205	-207	-210	-211	-213	-213	-214	-214	-213	-211	-209	-207	-205	-203	-202	-201	-200	-199	-199	-198	-198	-197	-197	-196	-195	-193	-192	-191	-190	-188	-187	-186	-185	-184	-183	-182	-181	-179	-178	-176	-174	-173	-171	-171	-170	-171	-172	-174	-177	-180	-184	-187	-190	-193	-195	-197	-199	-200	-201	-201	-201	-202	-201	-201	-199	-197	-194	-191
-2509	-2478	-2450	-2424	-2400	-2379	-2359	-2344	-2332	-2323	-2315	-2310	-2306	-2301	-2296	-2291	-2287	-2283	-2279	-2277	-2275	-2272	-2272	-2269	-2264	-2258	-2250	-2239	-2223	-2203	-2178	-2149	-2118	-2083	-2048	-2009	-1970	-1930	-1891	-1852	-1814	-1776	-1739	-1701	-1666	-1630	-1591	-1548	-1499	-1451	-1396	-1334	-1278	-1223	-1169	-1116	-1064	-1018	-973	-934	-897	-851	-806	-754	-704	-662	-609	-556	-504	-460	-420	-386	-359	-334	-311	-294	-283	-280	-277	-270	-262	-253	-244	-237	-228	-220	-211	-203	-194	-186	-179	-171	-163	-153	-144	-134	-123	-115	-109	-104	-101	-99	-98	-98	-99	-99	-100	-99	-98	-95	-91	-85	-78	-70	-61	-50	-38	-25	-13	-3	-11	-11	-12	-14	-14	-13	-13	-12	-11	-10	-13	-6	-12	-18	-28	-35	-41	-47	-52	-56	-62	-65	-68	-70	-71	-71	-69	-67	-66	-64	-63	-62	-63	-65	-69	-74	-79	-85	-92	-97	-102	-107	-110	-112	-114	-116	-116	-117	-118	-120	-122	-124	-127	-131	-135	-140	-145	-149	-153	-156	-159	-161	-164	-166	-169	-172	-176	-180	-186	-193	-200	-208	-215	-222	-228	-235	-241	-247	-252	-257	-262	-268	-275	-282	-290	-296	-302	-306	-310	-312	-314	-315	-315	-315	-315	-316	-316	-316	-317	-319	-322	-326	-331	-335	-340	-345	-350	-355	-360	-363	-366	-368	-369	-371	-372	-372	-372	-371	-371	-370	-368	-366	-363	-361	-358	-355	-352	-350	-347	-344	-341	-339	-336	-332	-329	-325	-322	-318	-314	-310	-307	-304	-302	-299	-296	-292	-288	-283	-277	-270	-261	-251	-241	-231	-223	-216	-210	-206	-202	-200	-199	-198	-197	-196	-195	-195	-195	-195	-196	-196	-197	-198	-199	-200	-202	-203	-204	-205	-205	-205	-205	-204	-202	-201	-199	-198	-197	-197	-196	-196	-196	-196	-195	-195	-194	-194	-193	-192	-191	-190	-189	-187	-186	-186	-185	-184	-183	-182	-181	-180	-179	-177	-176	-175	-174	-174	-174	-175	-176	-178	-181	-184	-187	-190	-193	-195	-197	-199	-200	-201	-202	-202	-203	-204	-204	-204	-203	-201	-198	-195
-2468	-2443	-2420	-2399	-2378	-2360	-2345	-2332	-2323	-2316	-2309	-2304	-2298	-2293	-2287	-2282	-2277	-2272	-2268	-2265	-2262	-2259	-2257	-2253	-2247	-2240	-2229	-2214	-2192	-2163	-2131	-2095	-2057	-2016	-1973	-1929	-1885	-1843	-1802	-1762	-1721	-1682	-1642	-1601	-1563	-1520	-1474	-1426	-1373	-1315	-1250	-1188	-1129	-1073	-1023	-975	-930	-888	-853	-823	-789	-750	-710	-665	-618	-576	-528	-480	-436	-399	-366	-339	-317	-301	-286	-277	-272	-270	-266	-259	-251	-242	-233	-225	-216	-208	-200	-193	-186	-179	-173	-167	-159	-151	-142	-133	-124	-116	-110	-105	-101	-99	-98	-98	-98	-99	-99	-98	-97	-93	-89	-83	-76	-68	-59	-49	-37	-24	-13	-3	-10	-10	-11	-12	-12	-11	-11	-11	-10	-10	-11	-3	-9	-15	-22	-29	-34	-40	-45	-49	-54	-57	-59	-61	-62	-62	-61	-59	-58	-57	-56	-56	-57	-60	-63	-68	-74	-80	-86	-91	-96	-100	-103	-105	-107	-108	-109	-109	-110	-111	-113	-115	-118	-121	-124	-128	-132	-135	-139	-141	-144	-146	-149	-151	-154	-157	-161	-166	-171	-176	-183	-190	-196	-202	-207	-212	-216	-221	-226	-232	-237	-244	-252	-261	-269	-277	-283	-289	-293	-297	-299	-300	-300	-300	-301	-301	-302	-301	-301	-303	-305	-310	-315	-320	-325	-331	-338	-345	-351	-355	-359	-361	-364	-366	-368	-369	-370	-370	-370	-369	-368	-366	-364	-362	-360	-358	-355	-353	-350	-348	-345	-342	-340	-336	-333	-330	-326	-321	-317	-313	-310	-307	-304	-302	-301	-299	-297	-293	-289	-283	-275	-266	-256	-246	-236	-228	-220	-214	-210	-206	-204	-202	-200	-199	-198	-197	-196	-195	-195	-194	-194	-194	-195	-195	-196	-197	-197	-198	-198	-199	-198	-198	-197	-196	-195	-195	-194	-194	-194	-194	-194	-194	-194	-193	-193	-192	-192	-191	-190	-189	-189	-188	-187	-186	-185	-185	-184	-183	-182	-182	-181	-180	-179	-178	-178	-178	-178	-179	-180	-182	-185	-188	-190	-193	-195	-197	-199	-200	-201	-202	-203	-204	-205	-206	-207	-208	-208	-207	-205	-203
-2419	-2398	-2379	-2363	-2348	-2334	-2323	-2315	-2309	-2304	-2299	-2294	-2288	-2282	-2276	-2270	-2265	-2260	-2255	-2251	-2247	-2244	-2239	-2234	-2227	-2218	-2203	-2183	-2156	-2124	-2087	-2046	-2003	-1956	-1907	-1857	-1809	-1763	-1717	-1670	-1624	-1577	-1530	-1482	-1438	-1387	-1338	-1289	-1237	-1181	-1122	-1066	-1014	-962	-918	-873	-830	-792	-758	-728	-697	-663	-627	-585	-540	-501	-462	-424	-389	-359	-333	-311	-298	-291	-283	-277	-272	-268	-262	-255	-246	-237	-227	-218	-210	-202	-195	-189	-183	-178	-172	-167	-160	-152	-143	-134	-126	-119	-112	-107	-102	-99	-98	-97	-98	-98	-98	-97	-95	-92	-87	-82	-75	-67	-58	-48	-36	-25	-14	-5	-10	-10	-10	-10	-10	-10	-10	-10	-10	-10	-10	-3	-8	-14	-19	-25	-30	-35	-40	-44	-48	-51	-53	-55	-55	-55	-54	-53	-52	-51	-51	-52	-53	-56	-59	-64	-69	-75	-80	-85	-90	-94	-97	-99	-101	-102	-103	-103	-104	-105	-107	-108	-110	-113	-116	-119	-122	-124	-127	-130	-132	-134	-136	-139	-141	-145	-148	-152	-157	-163	-169	-174	-180	-184	-189	-193	-197	-200	-205	-209	-215	-222	-230	-239	-248	-256	-264	-271	-276	-281	-284	-287	-288	-290	-291	-292	-294	-294	-294	-296	-298	-302	-307	-312	-317	-323	-330	-337	-343	-348	-352	-355	-358	-361	-364	-366	-367	-368	-368	-368	-367	-366	-365	-363	-361	-359	-357	-355	-353	-351	-348	-346	-343	-341	-337	-334	-330	-326	-322	-318	-314	-311	-308	-306	-304	-303	-302	-299	-295	-290	-283	-275	-266	-257	-247	-238	-231	-224	-219	-215	-212	-209	-207	-205	-203	-201	-200	-198	-196	-195	-194	-193	-193	-193	-193	-193	-193	-193	-194	-194	-194	-194	-193	-193	-193	-193	-192	-192	-193	-193	-193	-193	-193	-193	-193	-192	-192	-191	-191	-190	-189	-189	-188	-187	-187	-186	-186	-185	-185	-184	-184	-183	-183	-182	-182	-182	-183	-183	-185	-186	-188	-190	-192	-194	-196	-197	-198	-199	-200	-201	-202	-204	-205	-208	-210	-213	-215	-216	-217	-217
-2381	-2364	-2350	-2338	-2326	-2316	-2308	-2302	-2297	-2293	-2288	-2282	-2276	-2270	-2263	-2257	-2251	-2245	-2240	-2235	-2231	-2226	-2220	-2214	-2205	-2192	-2174	-2150	-2121	-2087	-2047	-2003	-1955	-1903	-1850	-1796	-1743	-1690	-1636	-1582	-1525	-1468	-1412	-1357	-1306	-1252	-1204	-1155	-1107	-1059	-1011	-963	-919	-874	-834	-790	-749	-711	-678	-648	-617	-586	-551	-510	-471	-436	-404	-374	-347	-324	-304	-291	-288	-285	-282	-278	-274	-269	-262	-254	-244	-234	-224	-215	-207	-199	-193	-187	-183	-179	-175	-170	-164	-157	-148	-139	-131	-123	-116	-110	-105	-101	-99	-98	-98	-97	-97	-96	-95	-92	-87	-81	-75	-67	-58	-49	-38	-27	-17	-9	-2	-10	-10	-10	-10	-10	-10	-10	-10	-10	-3	-7	-12	-16	-21	-26	-31	-36	-40	-44	-47	-49	-51	-53	-53	-53	-52	-52	-51	-51	-51	-51	-53	-56	-59	-63	-68	-73	-78	-83	-87	-91	-94	-96	-98	-99	-100	-101	-102	-102	-103	-105	-106	-108	-110	-112	-115	-117	-119	-121	-123	-125	-127	-129	-131	-134	-137	-141	-146	-150	-155	-160	-165	-169	-173	-176	-179	-182	-186	-190	-195	-201	-209	-218	-227	-236	-245	-252	-260	-266	-271	-275	-278	-281	-284	-287	-289	-291	-292	-294	-297	-301	-305	-309	-313	-318	-324	-331	-337	-342	-346	-350	-353	-356	-359	-362	-364	-365	-366	-366	-366	-366	-365	-363	-362	-360	-359	-357	-355	-353	-351	-349	-346	-344	-341	-339	-335	-331	-327	-323	-320	-316	-313	-310	-307	-306	-304	-301	-297	-293	-287	-280	-273	-265	-256	-248	-241	-235	-230	-226	-222	-219	-216	-213	-210	-207	-205	-202	-200	-197	-196	-194	-193	-192	-192	-191	-191	-191	-191	-191	-191	-191	-190	-190	-190	-190	-191	-191	-191	-192	-192	-192	-192	-192	-192	-192	-192	-191	-191	-190	-190	-189	-188	-188	-187	-187	-187	-186	-186	-186	-185	-185	-185	-185	-185	-185	-186	-187	-188	-189	-191	-193	-194	-196	-197	-198	-199	-199	-200	-201	-203	-205	-208	-212	-216	-220	-225	-229	-233	-237
-2347	-2334	-2323	-2313	-2304	-2297	-2291	-2287	-2283	-2279	-2274	-2268	-2262	-2256	-2249	-2243	-2237	-2231	-2226	-2220	-2215	-2210	-2204	-2196	-2184	-2170	-2150	-2127	-2096	-2060	-2019	-1973	-1922	-1867	-1809	-1749	-1688	-1628	-1566	-1502	-1436	-1368	-1303	-1242	-1190	-1139	-1093	-1047	-1005	-964	-926	-889	-852	-810	-768	-725	-684	-646	-613	-583	-553	-523	-491	-458	-427	-399	-373	-350	-330	-314	-301	-294	-290	-287	-286	-284	-281	-276	-268	-259	-248	-238	-228	-219	-211	-203	-196	-191	-188	-185	-182	-178	-172	-165	-158	-149	-140	-132	-124	-117	-111	-106	-102	-100	-98	-98	-97	-96	-95	-92	-87	-82	-76	-68	-60	-51	-41	-31	-22	-14	-8	-4	-1	-10	-10	-10	-10	-1	-4	-7	-10	-13	-17	-21	-25	-29	-34	-38	-42	-45	-48	-50	-52	-52	-53	-53	-52	-52	-51	-51	-51	-52	-54	-57	-60	-64	-68	-72	-77	-81	-85	-89	-92	-94	-96	-97	-99	-99	-100	-101	-102	-102	-103	-105	-106	-108	-109	-111	-112	-114	-115	-117	-119	-121	-123	-125	-128	-132	-136	-140	-144	-148	-152	-156	-159	-162	-165	-168	-171	-175	-179	-185	-192	-200	-209	-218	-227	-236	-244	-252	-259	-264	-269	-274	-278	-282	-286	-289	-291	-294	-297	-301	-304	-307	-311	-315	-320	-325	-330	-336	-340	-344	-348	-351	-355	-358	-360	-362	-363	-364	-364	-364	-364	-363	-362	-361	-359	-358	-356	-354	-353	-351	-349	-347	-345	-343	-340	-337	-333	-330	-326	-322	-318	-314	-311	-308	-305	-302	-298	-294	-289	-284	-278	-271	-265	-258	-252	-247	-242	-238	-234	-230	-227	-223	-219	-215	-212	-208	-205	-202	-199	-197	-195	-194	-193	-192	-191	-191	-190	-190	-189	-189	-189	-189	-189	-190	-190	-191	-191	-191	-192	-192	-192	-192	-192	-192	-192	-192	-191	-191	-190	-190	-189	-189	-189	-188	-188	-188	-188	-188	-188	-188	-188	-188	-188	-189	-189	-190	-191	-192	-194	-195	-196	-197	-198	-198	-199	-200	-201	-202	-204	-207	-211	-216	-222	-228	-234	-241	-248	-255
-2321	-2311	-2301	-2293	-2285	-2279	-2275	-2271	-2267	-2264	-2259	-2254	-2248	-2242	-2236	-2230	-2224	-2219	-2214	-2209	-2205	-2199	-2192	-2183	-2170	-2152	-2131	-2104	-2073	-2036	-1993	-1946	-1892	-1834	-1774	-1710	-1644	-1576	-1507	-1436	-1363	-1291	-1224	-1163	-1110	-1061	-1015	-972	-933	-897	-863	-829	-791	-751	-710	-670	-632	-596	-563	-533	-505	-476	-448	-421	-394	-370	-349	-330	-316	-304	-296	-291	-289	-289	-290	-290	-288	-285	-279	-271	-261	-251	-241	-233	-224	-216	-209	-204	-200	-197	-194	-190	-185	-178	-171	-162	-154	-145	-136	-128	-121	-114	-108	-104	-101	-99	-98	-97	-96	-94	-91	-86	-80	-73	-65	-57	-47	-37	-28	-22	-17	-13	-10	-9	-8	-9	-11	-12	-14	-16	-19	-21	-24	-27	-31	-35	-38	-42	-45	-48	-51	-52	-54	-54	-54	-54	-53	-53	-53	-53	-53	-54	-56	-58	-61	-65	-69	-73	-77	-81	-85	-88	-91	-93	-95	-97	-98	-99	-99	-100	-101	-101	-102	-102	-103	-104	-105	-106	-107	-108	-109	-111	-112	-114	-116	-118	-121	-124	-127	-131	-135	-139	-142	-146	-149	-151	-154	-156	-159	-163	-167	-172	-178	-186	-194	-204	-213	-223	-232	-240	-248	-255	-261	-267	-272	-277	-281	-285	-289	-292	-295	-298	-301	-304	-308	-311	-314	-319	-323	-328	-333	-337	-341	-345	-349	-352	-355	-357	-359	-360	-361	-362	-362	-362	-361	-360	-360	-358	-357	-356	-354	-353	-352	-350	-349	-347	-344	-342	-338	-335	-331	-326	-322	-318	-313	-310	-307	-304	-301	-297	-293	-288	-284	-279	-274	-268	-263	-258	-254	-250	-246	-243	-239	-235	-231	-226	-222	-218	-214	-210	-207	-204	-201	-199	-198	-196	-194	-193	-192	-191	-190	-190	-190	-190	-190	-190	-191	-191	-192	-192	-193	-193	-193	-193	-193	-193	-193	-193	-192	-192	-192	-191	-191	-190	-190	-190	-190	-190	-190	-190	-190	-190	-191	-191	-192	-192	-193	-194	-194	-195	-196	-197	-198	-198	-199	-199	-199	-200	-201	-203	-206	-210	-214	-220	-227	-234	-243	-252	-260	-268
-2302	-2293	-2284	-2276	-2269	-2264	-2259	-2255	-2252	-2249	-2245	-2240	-2235	-2229	-2224	-2219	-2214	-2210	-2206	-2202	-2197	-2191	-2184	-2174	-2159	-2138	-2114	-2086	-2053	-2015	-1972	-1923	-1868	-1807	-1745	-1679	-1608	-1535	-1459	-1381	-1304	-1230	-1164	-1104	-1049	-999	-955	-915	-878	-845	-812	-777	-740	-701	-662	-625	-589	-555	-523	-494	-467	-441	-417	-393	-370	-349	-331	-316	-305	-297	-292	-290	-290	-292	-294	-296	-296	-294	-291	-286	-279	-270	-261	-252	-243	-235	-228	-221	-215	-211	-207	-204	-199	-194	-187	-179	-171	-162	-152	-143	-134	-125	-117	-111	-106	-102	-100	-98	-97	-96	-93	-89	-83	-77	-70	-62	-53	-44	-36	-30	-27	-24	-23	-22	-22	-22	-24	-25	-26	-27	-29	-31	-33	-35	-38	-41	-45	-48	-51	-54	-56	-57	-58	-58	-57	-57	-56	-56	-55	-55	-56	-57	-58	-61	-64	-67	-70	-74	-78	-81	-85	-88	-91	-93	-95	-96	-97	-98	-99	-100	-100	-100	-100	-101	-101	-102	-102	-103	-103	-104	-105	-106	-107	-108	-110	-112	-115	-118	-121	-124	-127	-131	-134	-137	-140	-142	-145	-147	-150	-153	-157	-162	-168	-175	-184	-193	-202	-212	-222	-230	-239	-247	-254	-260	-265	-270	-274	-279	-282	-286	-289	-292	-294	-297	-300	-303	-306	-309	-313	-318	-323	-327	-332	-336	-340	-344	-348	-351	-354	-356	-357	-358	-359	-359	-359	-359	-359	-358	-358	-357	-356	-355	-354	-353	-352	-350	-348	-345	-342	-338	-334	-330	-325	-320	-316	-312	-309	-306	-303	-300	-297	-294	-290	-286	-282	-278	-274	-270	-266	-262	-259	-256	-252	-249	-245	-241	-237	-232	-228	-224	-220	-216	-212	-208	-205	-202	-200	-197	-195	-194	-193	-192	-192	-192	-192	-192	-193	-193	-193	-194	-194	-195	-195	-195	-195	-195	-195	-194	-194	-194	-193	-193	-192	-192	-192	-192	-192	-192	-192	-192	-193	-193	-193	-194	-195	-195	-196	-197	-197	-198	-199	-199	-199	-200	-200	-200	-200	-201	-202	-205	-207	-211	-217	-223	-231	-240	-250	-260	-269	-278
-2287	-2278	-2270	-2263	-2256	-2250	-2245	-2241	-2238	-2235	-2231	-2227	-2223	-2219	-2215	-2211	-2208	-2204	-2201	-2198	-2193	-2187	-2179	-2168	-2151	-2130	-2104	-2075	-2041	-2002	-1959	-1910	-1854	-1795	-1730	-1662	-1587	-1508	-1426	-1343	-1262	-1187	-1118	-1057	-1002	-953	-911	-874	-841	-808	-775	-740	-702	-664	-627	-591	-556	-523	-493	-464	-439	-416	-394	-372	-352	-334	-320	-308	-299	-294	-291	-290	-292	-295	-298	-301	-303	-302	-301	-299	-295	-290	-283	-275	-267	-259	-252	-245	-238	-233	-228	-224	-219	-214	-207	-199	-191	-181	-171	-160	-150	-139	-129	-120	-113	-108	-104	-101	-98	-96	-93	-89	-84	-79	-73	-66	-58	-50	-44	-40	-38	-37	-36	-36	-37	-38	-39	-40	-40	-40	-41	-42	-43	-45	-47	-50	-53	-56	-58	-61	-62	-63	-63	-63	-62	-62	-61	-60	-59	-59	-59	-60	-62	-64	-67	-70	-73	-76	-79	-83	-86	-88	-91	-93	-95	-96	-97	-98	-99	-99	-99	-99	-99	-99	-99	-99	-99	-100	-100	-101	-101	-102	-103	-104	-106	-108	-110	-113	-115	-118	-121	-125	-128	-131	-133	-135	-138	-140	-143	-146	-150	-155	-161	-167	-175	-184	-194	-204	-213	-222	-231	-239	-246	-253	-258	-262	-266	-270	-273	-276	-278	-280	-282	-285	-288	-291	-293	-296	-300	-304	-309	-314	-319	-324	-329	-334	-338	-342	-346	-349	-351	-353	-355	-356	-357	-357	-357	-357	-357	-356	-356	-355	-354	-353	-353	-352	-350	-347	-344	-340	-336	-331	-327	-322	-317	-313	-310	-307	-305	-303	-301	-298	-296	-293	-290	-287	-284	-280	-277	-274	-271	-269	-266	-262	-259	-255	-252	-248	-243	-239	-234	-230	-225	-221	-217	-213	-209	-206	-203	-200	-198	-197	-196	-195	-195	-195	-195	-195	-196	-196	-196	-197	-197	-197	-197	-196	-196	-196	-196	-195	-195	-195	-194	-194	-194	-194	-194	-194	-194	-195	-195	-195	-196	-197	-197	-198	-199	-199	-200	-200	-200	-200	-200	-200	-201	-201	-201	-202	-203	-205	-208	-213	-218	-224	-233	-243	-253	-263	-273	-282
-2271	-2263	-2256	-2248	-2241	-2235	-2231	-2227	-2225	-2223	-2220	-2217	-2214	-2211	-2209	-2207	-2205	-2203	-2201	-2198	-2193	-2187	-2178	-2165	-2147	-2125	-2099	-2068	-2033	-1994	-1950	-1902	-1848	-1788	-1724	-1655	-1577	-1495	-1407	-1321	-1239	-1162	-1092	-1027	-971	-924	-884	-851	-818	-785	-752	-716	-679	-642	-606	-570	-536	-504	-474	-446	-422	-400	-378	-358	-340	-325	-313	-304	-297	-294	-293	-293	-296	-299	-303	-306	-308	-309	-309	-308	-307	-304	-299	-293	-287	-281	-276	-270	-265	-259	-254	-249	-244	-238	-231	-222	-212	-202	-191	-179	-165	-152	-141	-130	-120	-112	-106	-102	-98	-95	-92	-88	-84	-79	-74	-68	-62	-56	-52	-50	-50	-50	-51	-53	-54	-55	-56	-56	-55	-55	-54	-54	-55	-56	-57	-60	-62	-65	-68	-70	-71	-71	-71	-70	-69	-68	-67	-65	-64	-64	-64	-65	-66	-68	-71	-73	-76	-79	-82	-84	-87	-89	-92	-93	-95	-96	-97	-98	-98	-98	-98	-98	-97	-97	-97	-96	-96	-97	-97	-98	-99	-100	-101	-102	-103	-105	-107	-109	-111	-114	-117	-120	-123	-125	-128	-130	-132	-134	-137	-140	-144	-149	-155	-161	-169	-177	-187	-197	-206	-216	-224	-232	-239	-245	-250	-253	-256	-258	-260	-262	-263	-264	-265	-267	-269	-271	-274	-278	-282	-287	-292	-298	-304	-310	-315	-321	-326	-331	-336	-340	-344	-347	-349	-351	-353	-354	-355	-355	-355	-355	-355	-354	-353	-353	-352	-351	-350	-347	-343	-339	-335	-330	-326	-321	-316	-312	-310	-308	-306	-305	-304	-303	-302	-300	-298	-295	-293	-290	-288	-285	-283	-280	-278	-275	-273	-270	-266	-262	-258	-254	-249	-245	-240	-236	-231	-227	-222	-218	-214	-210	-207	-204	-202	-201	-199	-199	-198	-198	-198	-198	-199	-199	-199	-198	-198	-198	-198	-198	-197	-197	-197	-196	-196	-196	-196	-196	-196	-196	-196	-197	-197	-198	-198	-198	-199	-199	-200	-200	-201	-201	-201	-201	-201	-201	-201	-201	-201	-202	-203	-206	-209	-213	-218	-224	-233	-243	-253	-263	-273	-282
-2253	-2246	-2239	-2232	-2227	-2222	-2218	-2216	-2215	-2213	-2212	-2210	-2208	-2208	-2207	-2207	-2207	-2206	-2204	-2201	-2197	-2189	-2178	-2162	-2142	-2119	-2090	-2058	-2023	-1983	-1940	-1892	-1839	-1785	-1725	-1658	-1579	-1494	-1406	-1322	-1240	-1163	-1088	-1020	-961	-915	-877	-843	-808	-775	-741	-705	-667	-630	-593	-557	-523	-491	-461	-434	-409	-387	-367	-349	-333	-320	-309	-302	-297	-295	-295	-297	-300	-304	-308	-311	-313	-313	-313	-313	-313	-311	-309	-305	-302	-299	-296	-293	-289	-285	-281	-276	-271	-264	-256	-246	-235	-224	-212	-199	-184	-170	-156	-144	-132	-122	-114	-108	-103	-99	-95	-91	-87	-84	-80	-76	-71	-67	-65	-65	-66	-67	-69	-71	-73	-74	-74	-73	-72	-70	-68	-67	-67	-68	-69	-71	-73	-76	-78	-80	-81	-81	-81	-79	-77	-76	-74	-72	-71	-70	-70	-70	-71	-73	-75	-77	-80	-82	-84	-87	-89	-91	-93	-94	-96	-97	-97	-97	-97	-97	-96	-96	-95	-94	-94	-93	-93	-93	-94	-95	-96	-97	-98	-99	-101	-102	-104	-106	-107	-110	-113	-116	-119	-121	-123	-125	-127	-129	-132	-135	-139	-144	-150	-156	-164	-173	-183	-193	-202	-211	-219	-226	-233	-238	-241	-244	-245	-246	-246	-246	-246	-245	-245	-246	-247	-249	-252	-256	-261	-266	-273	-280	-286	-293	-299	-306	-312	-318	-324	-329	-334	-338	-342	-345	-348	-350	-352	-352	-353	-353	-352	-352	-351	-350	-349	-348	-346	-343	-339	-335	-330	-326	-321	-317	-313	-310	-308	-307	-307	-307	-307	-307	-307	-306	-304	-303	-301	-299	-297	-295	-293	-291	-289	-287	-285	-282	-279	-276	-272	-268	-264	-260	-256	-252	-247	-243	-238	-233	-228	-223	-218	-214	-211	-208	-205	-203	-202	-201	-201	-201	-201	-201	-201	-200	-200	-200	-199	-199	-199	-199	-198	-198	-198	-198	-198	-198	-198	-198	-198	-199	-199	-199	-199	-200	-200	-200	-201	-201	-201	-201	-201	-201	-201	-201	-201	-201	-201	-202	-203	-205	-208	-211	-216	-223	-231	-240	-250	-260	-269	-278
-2236	-2230	-2224	-2219	-2215	-2211	-2209	-2208	-2207	-2207	-2207	-2207	-2208	-2209	-2211	-2213	-2214	-2214	-2212	-2208	-2201	-2191	-2176	-2157	-2133	-2106	-2076	-2042	-2005	-1965	-1921	-1874	-1822	-1770	-1712	-1646	-1568	-1484	-1397	-1312	-1232	-1158	-1085	-1018	-960	-915	-877	-843	-810	-776	-740	-702	-663	-626	-589	-554	-520	-487	-457	-429	-404	-382	-362	-344	-328	-316	-307	-301	-298	-297	-298	-300	-304	-307	-310	-313	-314	-314	-315	-315	-315	-315	-314	-312	-310	-309	-309	-307	-305	-302	-299	-296	-292	-286	-277	-267	-256	-244	-231	-218	-204	-190	-176	-163	-151	-139	-130	-123	-117	-111	-106	-101	-98	-96	-94	-91	-87	-84	-83	-85	-86	-89	-91	-93	-94	-95	-94	-92	-89	-85	-82	-81	-79	-79	-80	-82	-85	-88	-90	-92	-93	-92	-91	-89	-87	-84	-82	-79	-78	-76	-76	-76	-77	-79	-80	-82	-84	-86	-87	-89	-91	-93	-94	-95	-96	-97	-97	-97	-97	-96	-95	-94	-92	-91	-90	-89	-89	-89	-90	-91	-93	-94	-95	-96	-98	-99	-101	-102	-104	-106	-109	-112	-115	-118	-120	-122	-123	-125	-128	-131	-134	-139	-145	-152	-160	-169	-180	-190	-199	-207	-215	-221	-227	-230	-233	-234	-233	-233	-232	-230	-229	-227	-226	-225	-226	-228	-230	-234	-239	-245	-252	-260	-267	-275	-282	-289	-296	-303	-310	-316	-322	-328	-333	-337	-341	-344	-346	-348	-349	-349	-349	-349	-348	-347	-345	-343	-340	-336	-332	-328	-323	-319	-314	-311	-308	-306	-305	-305	-306	-307	-308	-309	-310	-310	-310	-309	-307	-305	-304	-302	-300	-299	-297	-296	-294	-292	-290	-287	-284	-281	-278	-274	-271	-267	-263	-259	-254	-248	-243	-237	-231	-225	-220	-216	-212	-209	-207	-206	-205	-204	-204	-203	-203	-202	-202	-201	-201	-201	-200	-200	-200	-200	-200	-199	-199	-200	-200	-200	-200	-200	-200	-200	-200	-201	-201	-201	-201	-201	-201	-201	-201	-201	-201	-201	-201	-201	-201	-202	-202	-204	-206	-209	-214	-220	-227	-236	-245	-255	-264	-273
-2221	-2217	-2213	-2209	-2206	-2204	-2203	-2203	-2204	-2206	-2208	-2210	-2213	-2217	-2220	-2224	-2226	-2225	-2222	-2216	-2206	-2191	-2171	-2147	-2119	-2088	-2054	-2017	-1979	-1938	-1894	-1847	-1796	-1741	-1682	-1614	-1540	-1458	-1375	-1293	-1219	-1151	-1087	-1027	-974	-928	-890	-856	-822	-784	-745	-706	-667	-631	-596	-561	-527	-495	-464	-436	-409	-384	-361	-341	-325	-313	-304	-299	-297	-297	-299	-301	-304	-307	-310	-311	-311	-311	-311	-312	-313	-314	-314	-313	-313	-313	-313	-313	-312	-310	-308	-306	-304	-299	-292	-283	-273	-262	-251	-239	-227	-213	-200	-189	-177	-166	-158	-151	-144	-137	-131	-127	-123	-121	-120	-117	-114	-112	-112	-113	-114	-116	-116	-116	-116	-114	-112	-107	-102	-97	-93	-92	-91	-91	-91	-93	-97	-100	-103	-105	-106	-105	-102	-99	-96	-93	-90	-87	-85	-83	-82	-82	-83	-85	-86	-87	-88	-90	-91	-92	-93	-95	-96	-97	-97	-97	-97	-97	-96	-94	-93	-91	-89	-87	-86	-84	-83	-83	-84	-85	-86	-86	-87	-89	-91	-93	-95	-97	-99	-102	-105	-109	-112	-114	-116	-118	-120	-122	-124	-127	-130	-135	-141	-148	-157	-165	-176	-186	-195	-203	-210	-216	-220	-223	-224	-223	-222	-220	-218	-216	-214	-211	-209	-208	-208	-209	-212	-215	-220	-226	-233	-241	-249	-256	-264	-272	-279	-287	-294	-302	-309	-315	-321	-327	-332	-336	-339	-342	-344	-344	-345	-345	-344	-342	-340	-338	-334	-330	-325	-320	-316	-311	-307	-304	-301	-300	-300	-301	-303	-305	-307	-309	-311	-312	-313	-313	-312	-311	-308	-306	-305	-304	-302	-301	-300	-298	-297	-296	-294	-292	-289	-287	-284	-281	-278	-273	-268	-263	-257	-250	-243	-237	-230	-224	-220	-216	-213	-210	-209	-207	-207	-206	-205	-204	-204	-203	-203	-202	-202	-202	-201	-201	-201	-201	-201	-201	-201	-201	-201	-201	-201	-201	-201	-201	-201	-201	-201	-201	-201	-201	-201	-200	-200	-200	-200	-200	-201	-201	-201	-202	-204	-206	-210	-215	-222	-230	-238	-248	-257	-266
-2210	-2208	-2206	-2203	-2202	-2201	-2201	-2202	-2205	-2208	-2213	-2217	-2223	-2228	-2233	-2237	-2238	-2237	-2231	-2221	-2207	-2186	-2159	-2129	-2096	-2060	-2022	-1983	-1942	-1901	-1857	-1810	-1758	-1703	-1644	-1580	-1510	-1434	-1356	-1281	-1214	-1155	-1097	-1043	-993	-946	-905	-869	-832	-793	-751	-710	-671	-634	-601	-567	-534	-502	-471	-441	-412	-386	-362	-338	-320	-308	-299	-294	-293	-293	-295	-297	-300	-302	-304	-304	-303	-302	-301	-302	-304	-305	-306	-307	-307	-309	-311	-312	-312	-311	-310	-310	-310	-307	-302	-294	-285	-275	-265	-254	-242	-230	-218	-208	-199	-191	-184	-178	-173	-168	-163	-159	-155	-153	-151	-149	-146	-144	-144	-145	-145	-145	-144	-142	-138	-134	-129	-123	-115	-109	-104	-102	-101	-102	-102	-104	-108	-112	-115	-117	-117	-116	-113	-110	-106	-103	-99	-96	-94	-91	-90	-90	-90	-91	-92	-93	-93	-94	-94	-95	-96	-97	-97	-98	-98	-98	-97	-96	-95	-93	-91	-88	-86	-83	-81	-79	-77	-76	-75	-75	-76	-76	-77	-78	-80	-83	-86	-89	-92	-96	-100	-104	-107	-110	-112	-114	-116	-118	-120	-122	-126	-130	-136	-144	-153	-163	-173	-183	-192	-199	-205	-209	-212	-214	-213	-211	-209	-207	-205	-203	-201	-198	-196	-195	-194	-195	-197	-201	-205	-210	-217	-224	-231	-239	-247	-255	-263	-271	-279	-287	-294	-302	-309	-315	-321	-326	-331	-334	-337	-339	-340	-340	-339	-337	-335	-331	-327	-323	-317	-312	-307	-302	-298	-295	-293	-292	-293	-295	-298	-301	-305	-308	-310	-313	-314	-315	-314	-312	-310	-307	-305	-304	-303	-302	-301	-300	-300	-300	-299	-298	-297	-296	-294	-292	-289	-286	-281	-275	-269	-262	-254	-246	-239	-232	-226	-221	-217	-214	-212	-210	-209	-208	-207	-206	-205	-205	-204	-204	-203	-203	-203	-202	-202	-202	-202	-202	-202	-202	-202	-201	-201	-201	-201	-201	-201	-201	-200	-200	-200	-200	-200	-200	-200	-200	-200	-200	-200	-200	-200	-200	-201	-203	-206	-211	-216	-223	-231	-240	-249	-258
-2203	-2203	-2202	-2201	-2200	-2200	-2201	-2204	-2208	-2213	-2219	-2225	-2232	-2239	-2245	-2248	-2248	-2244	-2235	-2221	-2201	-2173	-2143	-2107	-2067	-2026	-1984	-1942	-1901	-1860	-1818	-1766	-1715	-1663	-1607	-1547	-1482	-1414	-1343	-1277	-1219	-1166	-1114	-1063	-1013	-964	-919	-876	-835	-793	-749	-707	-668	-631	-597	-564	-532	-499	-468	-437	-408	-379	-354	-330	-312	-298	-290	-285	-283	-283	-284	-286	-287	-289	-289	-288	-286	-283	-281	-281	-283	-284	-285	-287	-289	-291	-295	-298	-300	-300	-301	-303	-304	-304	-301	-295	-288	-280	-272	-262	-251	-240	-230	-222	-216	-210	-206	-202	-199	-196	-193	-189	-186	-183	-180	-178	-175	-174	-173	-173	-173	-172	-169	-167	-160	-155	-149	-141	-133	-127	-122	-119	-117	-118	-118	-120	-124	-127	-130	-132	-133	-132	-129	-126	-122	-118	-114	-111	-107	-103	-101	-100	-99	-99	-99	-98	-98	-98	-97	-98	-98	-98	-99	-99	-99	-98	-97	-96	-94	-91	-88	-85	-82	-79	-76	-73	-70	-68	-66	-65	-64	-64	-64	-65	-67	-70	-74	-78	-82	-87	-92	-97	-101	-105	-108	-110	-112	-114	-116	-118	-120	-124	-131	-139	-149	-159	-169	-178	-185	-192	-197	-200	-200	-199	-197	-194	-192	-190	-189	-188	-186	-185	-184	-183	-183	-185	-187	-190	-193	-198	-203	-210	-217	-224	-232	-240	-248	-256	-265	-273	-281	-289	-297	-304	-311	-317	-322	-326	-330	-333	-334	-334	-333	-331	-328	-325	-320	-315	-309	-303	-297	-292	-288	-285	-283	-283	-284	-287	-291	-296	-301	-305	-308	-310	-312	-312	-311	-308	-305	-302	-299	-299	-298	-297	-297	-297	-298	-299	-300	-301	-300	-300	-300	-300	-298	-295	-291	-285	-278	-271	-263	-254	-246	-238	-231	-226	-221	-218	-215	-213	-211	-210	-209	-208	-207	-206	-206	-205	-205	-204	-204	-203	-203	-203	-203	-202	-202	-202	-202	-202	-201	-201	-201	-201	-200	-200	-200	-200	-200	-200	-200	-200	-200	-199	-199	-199	-199	-199	-199	-199	-200	-201	-203	-207	-212	-218	-225	-233	-242	-250
-2199	-2201	-2202	-2201	-2201	-2201	-2202	-2205	-2209	-2215	-2222	-2230	-2238	-2245	-2251	-2253	-2251	-2244	-2231	-2212	-2186	-2156	-2118	-2076	-2031	-1985	-1940	-1897	-1856	-1816	-1771	-1726	-1678	-1629	-1576	-1520	-1461	-1398	-1334	-1273	-1218	-1168	-1118	-1068	-1017	-967	-917	-869	-824	-779	-734	-691	-653	-618	-585	-552	-520	-489	-457	-426	-396	-368	-341	-319	-301	-287	-278	-272	-268	-265	-263	-263	-263	-262	-260	-258	-254	-250	-248	-248	-248	-249	-250	-251	-253	-257	-263	-269	-273	-276	-280	-284	-289	-292	-291	-288	-283	-277	-271	-264	-255	-246	-237	-230	-224	-220	-217	-214	-212	-209	-206	-204	-202	-199	-197	-195	-192	-191	-190	-190	-190	-190	-189	-187	-186	-181	-175	-170	-164	-158	-153	-149	-147	-144	-145	-146	-148	-149	-152	-153	-154	-153	-151	-148	-144	-140	-136	-131	-126	-120	-116	-112	-109	-107	-105	-104	-102	-101	-100	-100	-100	-100	-100	-99	-99	-98	-97	-95	-92	-89	-86	-82	-78	-74	-70	-66	-63	-60	-57	-54	-52	-51	-51	-52	-53	-56	-60	-64	-70	-76	-82	-88	-94	-98	-102	-105	-107	-109	-111	-112	-114	-117	-122	-130	-137	-144	-153	-160	-165	-169	-173	-175	-173	-172	-171	-169	-167	-167	-168	-168	-168	-169	-170	-171	-173	-176	-179	-182	-185	-189	-194	-199	-205	-212	-219	-226	-234	-243	-252	-261	-270	-278	-286	-294	-302	-308	-314	-319	-323	-326	-328	-328	-327	-325	-321	-317	-312	-306	-299	-293	-287	-281	-277	-274	-272	-272	-274	-278	-283	-289	-295	-299	-302	-304	-306	-306	-303	-298	-292	-286	-283	-282	-281	-281	-281	-283	-286	-290	-294	-296	-298	-300	-302	-302	-302	-300	-296	-291	-284	-277	-268	-259	-250	-241	-234	-228	-223	-219	-216	-214	-212	-211	-210	-209	-208	-207	-206	-206	-205	-205	-204	-204	-204	-203	-203	-203	-202	-202	-202	-202	-201	-201	-201	-201	-200	-200	-200	-200	-200	-199	-199	-199	-199	-199	-199	-199	-199	-199	-199	-198	-199	-199	-201	-205	-209	-214	-221	-228	-236	-243
-2202	-2206	-2208	-2208	-2207	-2206	-2206	-2208	-2212	-2218	-2225	-2232	-2240	-2246	-2250	-2250	-2245	-2234	-2216	-2192	-2161	-2123	-2078	-2030	-1979	-1928	-1879	-1834	-1792	-1753	-1713	-1673	-1629	-1583	-1535	-1483	-1427	-1369	-1309	-1252	-1199	-1150	-1100	-1049	-998	-946	-894	-843	-794	-746	-701	-660	-624	-589	-556	-525	-494	-464	-434	-404	-375	-349	-324	-303	-288	-275	-264	-256	-249	-243	-239	-237	-234	-228	-223	-218	-213	-208	-204	-202	-201	-201	-201	-202	-205	-210	-217	-224	-231	-237	-243	-251	-259	-266	-269	-269	-267	-265	-262	-258	-252	-245	-238	-232	-228	-224	-221	-218	-216	-214	-212	-210	-208	-206	-204	-202	-200	-199	-199	-199	-199	-199	-198	-196	-194	-190	-186	-182	-178	-174	-170	-168	-167	-167	-168	-169	-170	-171	-174	-175	-175	-175	-174	-171	-168	-164	-158	-152	-145	-138	-131	-125	-120	-115	-111	-108	-106	-104	-102	-101	-101	-100	-100	-100	-99	-98	-96	-94	-91	-87	-83	-78	-74	-69	-64	-60	-55	-51	-47	-44	-41	-39	-38	-38	-39	-41	-45	-50	-56	-63	-70	-77	-84	-90	-94	-99	-102	-104	-105	-106	-107	-109	-112	-115	-118	-122	-128	-132	-134	-134	-135	-135	-135	-136	-135	-134	-134	-137	-142	-146	-149	-153	-157	-161	-165	-169	-173	-177	-180	-184	-188	-192	-197	-203	-209	-216	-223	-231	-240	-250	-260	-269	-278	-287	-295	-302	-308	-313	-316	-320	-321	-322	-321	-318	-314	-309	-303	-296	-289	-282	-275	-269	-264	-261	-259	-259	-261	-266	-272	-279	-285	-290	-293	-296	-297	-295	-289	-282	-274	-264	-258	-255	-253	-253	-255	-260	-264	-270	-278	-285	-290	-294	-297	-299	-300	-300	-297	-292	-286	-278	-270	-261	-251	-242	-234	-228	-223	-219	-216	-214	-212	-211	-210	-209	-208	-207	-206	-206	-205	-205	-204	-204	-204	-203	-203	-203	-202	-202	-202	-202	-201	-201	-201	-200	-200	-200	-200	-200	-199	-199	-199	-199	-199	-199	-199	-199	-198	-198	-198	-198	-198	-199	-200	-203	-207	-211	-217	-223	-230	-237
-2212	-2218	-2221	-2221	-2220	-2217	-2214	-2214	-2215	-2219	-2224	-2229	-2235	-2239	-2240	-2237	-2227	-2211	-2187	-2155	-2116	-2070	-2018	-1963	-1907	-1851	-1798	-1749	-1704	-1667	-1629	-1594	-1553	-1510	-1465	-1417	-1367	-1314	-1256	-1202	-1147	-1097	-1046	-995	-944	-892	-839	-787	-737	-691	-650	-613	-577	-543	-511	-481	-453	-426	-399	-370	-344	-318	-294	-274	-258	-244	-232	-221	-211	-204	-200	-197	-193	-188	-183	-177	-170	-164	-158	-154	-151	-149	-147	-148	-150	-155	-161	-170	-180	-190	-199	-210	-220	-230	-238	-243	-246	-247	-246	-246	-243	-239	-234	-230	-226	-223	-220	-217	-215	-213	-211	-210	-208	-206	-204	-203	-202	-201	-201	-201	-201	-201	-200	-199	-196	-192	-188	-185	-182	-179	-177	-175	-175	-176	-179	-180	-181	-182	-184	-185	-186	-187	-187	-187	-184	-180	-175	-168	-160	-152	-144	-135	-127	-121	-116	-112	-108	-106	-104	-103	-102	-101	-101	-100	-99	-98	-95	-92	-89	-84	-79	-74	-69	-64	-58	-53	-48	-43	-39	-34	-31	-28	-26	-25	-26	-27	-30	-35	-41	-48	-56	-64	-72	-79	-86	-91	-95	-98	-100	-101	-102	-102	-103	-104	-105	-107	-110	-112	-112	-111	-110	-109	-109	-109	-109	-109	-111	-115	-121	-128	-135	-141	-147	-153	-159	-164	-169	-174	-179	-183	-186	-190	-194	-198	-204	-209	-216	-223	-232	-242	-252	-262	-272	-281	-289	-296	-302	-307	-311	-314	-315	-315	-314	-311	-307	-301	-294	-286	-278	-270	-263	-256	-251	-247	-245	-245	-248	-253	-259	-266	-273	-278	-281	-282	-281	-276	-269	-260	-251	-241	-233	-229	-227	-229	-233	-239	-245	-251	-259	-267	-275	-280	-284	-287	-289	-290	-288	-284	-279	-272	-264	-255	-246	-238	-230	-224	-220	-217	-215	-213	-211	-210	-209	-208	-207	-206	-206	-205	-205	-205	-204	-204	-203	-203	-203	-202	-202	-202	-202	-201	-201	-201	-200	-200	-200	-200	-200	-200	-199	-199	-199	-199	-199	-199	-198	-198	-198	-198	-197	-197	-197	-198	-200	-202	-205	-209	-213	-219	-225	-230
-2224	-2232	-2236	-2238	-2237	-2234	-2230	-2226	-2224	-2224	-2224	-2225	-2226	-2225	-2220	-2211	-2196	-2172	-2140	-2099	-2050	-1995	-1936	-1874	-1810	-1749	-1691	-1637	-1588	-1547	-1512	-1474	-1434	-1394	-1352	-1310	-1266	-1220	-1169	-1115	-1061	-1010	-960	-911	-862	-812	-761	-710	-662	-622	-586	-552	-517	-482	-451	-423	-397	-373	-347	-321	-295	-272	-251	-233	-218	-204	-192	-181	-173	-167	-163	-159	-155	-150	-144	-136	-128	-119	-112	-105	-99	-94	-91	-90	-91	-95	-101	-109	-119	-130	-143	-157	-171	-185	-198	-209	-217	-224	-228	-231	-232	-230	-228	-224	-221	-218	-215	-213	-210	-209	-208	-206	-205	-204	-203	-201	-201	-200	-200	-200	-200	-201	-201	-199	-196	-191	-187	-183	-180	-176	-174	-172	-172	-174	-177	-180	-182	-183	-184	-185	-187	-188	-188	-188	-186	-183	-178	-172	-165	-156	-148	-139	-130	-123	-117	-113	-110	-108	-106	-104	-103	-102	-102	-101	-99	-97	-94	-91	-87	-82	-76	-70	-64	-58	-53	-47	-42	-36	-31	-26	-22	-19	-16	-15	-14	-14	-16	-20	-26	-34	-42	-51	-60	-69	-77	-84	-89	-93	-96	-98	-98	-99	-99	-100	-101	-102	-103	-103	-103	-101	-100	-98	-97	-96	-96	-97	-100	-104	-110	-118	-125	-133	-141	-148	-155	-162	-168	-174	-179	-184	-187	-190	-193	-197	-201	-206	-212	-218	-226	-235	-245	-256	-266	-275	-283	-290	-296	-301	-305	-307	-308	-309	-307	-304	-299	-293	-286	-279	-271	-262	-254	-248	-245	-242	-240	-239	-240	-243	-247	-253	-258	-258	-259	-258	-256	-251	-245	-238	-230	-222	-216	-213	-213	-215	-220	-225	-231	-235	-241	-247	-254	-258	-262	-264	-265	-266	-265	-262	-258	-252	-246	-240	-234	-227	-222	-218	-215	-213	-211	-210	-209	-208	-207	-206	-206	-205	-205	-204	-204	-204	-203	-203	-203	-202	-202	-202	-202	-201	-201	-201	-201	-200	-200	-200	-200	-200	-200	-200	-199	-199	-199	-199	-199	-199	-198	-198	-198	-197	-197	-197	-197	-198	-199	-201	-203	-206	-210	-215	-219	-224
-2234	-2243	-2249	-2253	-2254	-2252	-2247	-2242	-2236	-2231	-2226	-2220	-2213	-2202	-2188	-2169	-2144	-2111	-2068	-2017	-1960	-1896	-1830	-1762	-1694	-1627	-1565	-1507	-1453	-1405	-1361	-1321	-1280	-1242	-1204	-1166	-1127	-1088	-1045	-998	-948	-899	-851	-804	-759	-714	-667	-623	-581	-545	-509	-474	-439	-406	-374	-347	-322	-299	-277	-257	-239	-221	-205	-191	-178	-167	-157	-148	-140	-133	-128	-124	-118	-112	-105	-96	-86	-77	-68	-59	-50	-43	-39	-36	-35	-37	-42	-49	-60	-74	-89	-106	-124	-142	-160	-177	-191	-203	-211	-216	-219	-220	-219	-217	-215	-212	-210	-207	-205	-204	-203	-202	-201	-199	-198	-196	-195	-195	-194	-194	-194	-195	-195	-193	-188	-183	-178	-172	-167	-163	-159	-157	-158	-161	-167	-171	-175	-178	-180	-182	-184	-185	-186	-185	-183	-178	-174	-168	-161	-154	-146	-136	-127	-121	-116	-113	-110	-108	-106	-104	-103	-103	-102	-100	-98	-96	-92	-88	-84	-78	-72	-65	-59	-53	-47	-41	-36	-30	-25	-20	-16	-12	-10	-7	-5	-4	-5	-8	-14	-21	-29	-39	-49	-59	-69	-77	-84	-89	-93	-95	-97	-98	-98	-98	-99	-99	-99	-98	-97	-95	-93	-91	-90	-89	-89	-91	-94	-99	-105	-113	-121	-130	-138	-146	-154	-162	-169	-175	-181	-185	-189	-192	-195	-199	-202	-206	-210	-216	-223	-231	-240	-249	-259	-268	-276	-283	-288	-293	-297	-299	-301	-301	-299	-296	-291	-284	-277	-270	-261	-252	-243	-237	-234	-233	-232	-230	-229	-230	-232	-235	-237	-235	-231	-229	-227	-224	-221	-218	-214	-208	-206	-205	-207	-209	-212	-215	-217	-220	-223	-227	-230	-233	-234	-234	-234	-234	-234	-232	-230	-227	-223	-220	-217	-214	-212	-210	-208	-207	-206	-205	-205	-204	-204	-203	-203	-203	-202	-202	-202	-202	-202	-202	-201	-201	-201	-201	-201	-201	-200	-200	-200	-200	-200	-200	-200	-200	-200	-200	-199	-199	-199	-199	-199	-199	-198	-198	-198	-198	-197	-197	-197	-198	-199	-200	-202	-204	-207	-211	-214	-218
-2240	-2250	-2256	-2261	-2263	-2261	-2258	-2252	-2245	-2235	-2223	-2208	-2190	-2167	-2139	-2105	-2064	-2015	-1960	-1899	-1833	-1763	-1692	-1622	-1553	-1488	-1426	-1367	-1310	-1257	-1207	-1161	-1121	-1083	-1046	-1011	-977	-942	-905	-865	-821	-773	-727	-684	-644	-603	-562	-523	-485	-452	-421	-388	-356	-324	-295	-272	-250	-235	-220	-206	-193	-180	-167	-156	-145	-136	-126	-116	-108	-101	-95	-90	-84	-78	-70	-61	-52	-42	-33	-24	-16	-8	-3	-10	-10	-10	-1	-7	-17	-29	-45	-63	-83	-104	-126	-148	-167	-182	-194	-202	-207	-210	-210	-210	-208	-207	-204	-202	-200	-199	-198	-197	-195	-192	-190	-187	-185	-183	-181	-180	-179	-179	-179	-177	-172	-167	-161	-155	-149	-144	-140	-138	-139	-142	-147	-153	-159	-164	-167	-169	-170	-171	-172	-170	-166	-162	-157	-151	-146	-140	-133	-125	-120	-115	-112	-109	-107	-105	-104	-102	-101	-101	-100	-98	-96	-93	-89	-85	-80	-74	-67	-61	-54	-47	-41	-36	-30	-25	-20	-16	-12	-9	-6	-4	-1	-1	-10	-1	-7	-13	-21	-30	-40	-51	-62	-73	-81	-87	-91	-94	-96	-98	-98	-98	-98	-98	-97	-96	-95	-93	-90	-89	-88	-87	-88	-90	-93	-98	-104	-112	-120	-129	-138	-146	-155	-163	-171	-177	-183	-188	-191	-194	-197	-200	-202	-205	-209	-213	-219	-226	-234	-242	-251	-259	-267	-274	-279	-284	-287	-290	-291	-291	-290	-286	-281	-274	-267	-260	-252	-242	-235	-229	-226	-221	-220	-215	-213	-210	-212	-212	-212	-209	-210	-208	-209	-209	-209	-207	-204	-201	-200	-201	-202	-203	-204	-205	-206	-206	-207	-208	-209	-209	-208	-207	-206	-206	-206	-206	-205	-203	-202	-201	-201	-201	-200	-200	-200	-199	-199	-199	-199	-199	-199	-199	-199	-199	-199	-199	-199	-199	-199	-199	-200	-200	-200	-200	-200	-200	-200	-200	-200	-200	-200	-200	-200	-200	-200	-200	-200	-199	-199	-199	-199	-199	-199	-198	-198	-198	-198	-198	-198	-198	-198	-199	-201	-202	-204	-207	-210	-213
-2240	-2248	-2254	-2257	-2259	-2257	-2252	-2246	-2236	-2223	-2203	-2178	-2146	-2108	-2062	-2010	-1949	-1882	-1811	-1739	-1665	-1593	-1522	-1455	-1391	-1332	-1277	-1223	-1171	-1119	-1070	-1025	-984	-946	-910	-876	-842	-808	-772	-733	-688	-640	-594	-553	-514	-478	-441	-407	-374	-348	-325	-301	-274	-250	-227	-210	-197	-190	-180	-169	-158	-148	-137	-128	-117	-107	-95	-85	-76	-69	-63	-58	-53	-47	-40	-33	-19	-18	-11	610	610	610	-10	-10	-10	-10	-10	-10	-10	-8	-22	-39	-59	-80	-103	-126	-148	-165	-179	-190	-197	-202	-205	-206	-206	-205	-203	-201	-199	-197	-195	-192	-188	-183	-178	-173	-168	-163	-159	-156	-154	-152	-150	-148	-144	-139	-133	-127	-122	-117	-114	-114	-116	-120	-126	-134	-141	-146	-150	-153	-154	-154	-154	-151	-146	-142	-138	-134	-129	-124	-119	-114	-110	-106	-104	-102	-100	-99	-97	-96	-96	-95	-95	-94	-91	-88	-84	-80	-74	-68	-61	-55	-48	-41	-36	-30	-25	-20	-16	-12	-9	-6	-4	-2	-1	-1	-1	-3	-8	-14	-22	-31	-41	-51	-62	-72	-80	-87	-91	-95	-97	-98	-99	-99	-98	-98	-97	-95	-94	-92	-90	-88	-87	-87	-88	-90	-94	-99	-105	-113	-121	-130	-139	-148	-157	-166	-173	-180	-186	-191	-194	-197	-199	-201	-203	-205	-207	-211	-216	-221	-228	-235	-243	-250	-257	-263	-268	-273	-276	-279	-280	-280	-278	-274	-268	-261	-252	-244	-235	-226	-218	-211	-205	-202	-199	-197	-196	-196	-197	-198	-200	-200	-201	-202	-203	-203	-203	-202	-200	-198	-198	-198	-198	-198	-198	-198	-197	-196	-195	-194	-193	-192	-190	-188	-186	-186	-186	-186	-185	-185	-185	-185	-186	-187	-188	-189	-190	-190	-191	-192	-192	-193	-193	-193	-194	-194	-195	-195	-195	-196	-196	-197	-197	-197	-198	-198	-198	-199	-199	-199	-199	-199	-200	-200	-200	-200	-200	-200	-200	-200	-200	-199	-199	-199	-199	-199	-198	-198	-198	-198	-198	-198	-198	-199	-200	-201	-202	-204	-206	-207
-2231	-2237	-2239	-2240	-2238	-2233	-2226	-2217	-2204	-2184	-2155	-2116	-2069	-2013	-1950	-1878	-1799	-1714	-1628	-1546	-1469	-1399	-1332	-1272	-1216	-1167	-1122	-1079	-1035	-989	-945	-902	-861	-823	-786	-751	-716	-678	-642	-597	-551	-503	-459	-419	-384	-350	-321	-292	-272	-255	-241	-226	-210	-192	-177	-164	-155	-149	-141	-132	-122	-112	-103	-95	-87	-77	-66	-57	-48	-41	-36	-31	-26	-22	-18	-14	610	610	610	610	610	610	305	0	0	-10	-10	-10	-10	-5	-17	-32	-49	-67	-88	-109	-129	-147	-162	-175	-185	-193	-198	-201	-203	-203	-202	-200	-197	-194	-190	-185	-180	-173	-164	-156	-148	-141	-135	-129	-125	-121	-119	-117	-115	-111	-108	-104	-101	-99	-98	-99	-101	-106	-112	-119	-125	-129	-132	-135	-136	-135	-134	-131	-128	-124	-120	-117	-112	-108	-105	-101	-98	-95	-93	-92	-90	-89	-88	-87	-86	-85	-84	-82	-80	-77	-74	-69	-64	-59	-53	-47	-41	-35	-30	-25	-21	-17	-13	-10	-7	-5	-4	-3	-2	-2	-4	-7	-12	-19	-27	-35	-45	-55	-65	-74	-82	-88	-93	-96	-98	-100	-100	-100	-100	-99	-97	-96	-94	-92	-91	-89	-89	-89	-90	-93	-96	-102	-108	-115	-124	-132	-142	-151	-161	-169	-177	-184	-189	-194	-197	-199	-200	-201	-202	-204	-206	-208	-212	-216	-221	-227	-234	-240	-246	-252	-257	-261	-264	-267	-268	-268	-265	-261	-255	-248	-240	-232	-225	-217	-211	-205	-201	-199	-198	-197	-196	-196	-196	-197	-198	-198	-199	-199	-200	-201	-201	-200	-198	-197	-196	-196	-195	-195	-194	-192	-190	-188	-186	-184	-182	-180	-178	-175	-173	-172	-172	-171	-171	-171	-171	-172	-173	-175	-176	-178	-179	-180	-181	-183	-184	-185	-186	-186	-187	-188	-189	-190	-190	-191	-192	-193	-194	-194	-195	-196	-197	-197	-198	-199	-199	-199	-200	-200	-200	-200	-200	-200	-200	-200	-200	-200	-200	-199	-199	-199	-199	-199	-199	-199	-199	-199	-199	-199	-199	-200	-200	-201	-202	-203
-2214	-2214	-2211	-2205	-2196	-2185	-2172	-2156	-2135	-2105	-2063	-2010	-1948	-1878	-1799	-1712	-1619	-1522	-1426	-1342	-1267	-1201	-1142	-1090	-1044	-1004	-968	-937	-901	-863	-823	-783	-743	-705	-669	-633	-598	-559	-511	-466	-420	-376	-334	-298	-266	-238	-216	-206	-195	-186	-179	-171	-160	-148	-136	-126	-117	-110	-101	-93	-85	-77	-69	-63	-56	-48	-40	-33	-25	-19	-14	-10	305	305	495	686	686	686	686	686	686	686	343	0	0	-10	-10	-10	-10	-5	-15	-27	-41	-56	-73	-92	-110	-128	-143	-158	-170	-180	-187	-193	-197	-199	-199	-198	-195	-190	-185	-179	-171	-163	-152	-142	-132	-124	-116	-109	-103	-98	-95	-93	-91	-89	-87	-86	-85	-84	-84	-86	-90	-94	-100	-105	-110	-114	-117	-119	-120	-119	-117	-115	-111	-108	-104	-101	-97	-93	-90	-87	-84	-82	-80	-79	-78	-77	-76	-75	-74	-73	-72	-70	-68	-66	-62	-59	-54	-49	-44	-39	-34	-30	-25	-21	-17	-14	-11	-9	-7	-6	-5	-5	-6	-7	-10	-14	-20	-27	-34	-43	-52	-61	-70	-78	-85	-91	-95	-99	-101	-102	-103	-103	-102	-101	-100	-98	-97	-95	-94	-92	-92	-93	-94	-97	-101	-106	-112	-119	-127	-136	-145	-155	-164	-173	-181	-187	-192	-196	-199	-201	-201	-202	-202	-203	-204	-206	-208	-211	-215	-219	-224	-229	-235	-240	-244	-248	-251	-254	-255	-255	-253	-249	-243	-236	-230	-224	-218	-212	-207	-203	-201	-200	-199	-199	-198	-198	-198	-199	-199	-200	-200	-200	-200	-200	-200	-199	-198	-197	-196	-195	-194	-192	-191	-188	-186	-183	-180	-177	-174	-171	-168	-165	-163	-161	-160	-159	-159	-159	-159	-160	-161	-163	-165	-166	-168	-170	-171	-173	-174	-176	-177	-179	-180	-181	-182	-184	-185	-186	-187	-189	-190	-191	-192	-194	-195	-196	-197	-198	-199	-199	-200	-200	-201	-201	-201	-201	-200	-200	-200	-200	-200	-200	-199	-199	-199	-199	-199	-199	-199	-199	-199	-199	-199	-199	-199	-199	-200	-200
-2188	-2180	-2168	-2154	-2135	-2115	-2087	-2057	-2020	-1974	-1918	-1852	-1775	-1694	-1603	-1511	-1415	-1322	-1232	-1152	-1083	-1024	-974	-930	-893	-859	-827	-797	-767	-735	-700	-663	-625	-588	-554	-521	-488	-453	-413	-374	-337	-302	-270	-242	-218	-197	-181	-170	-160	-151	-143	-135	-124	-113	-101	-91	-82	-74	-67	-60	-54	-48	-42	-37	-32	-26	-20	-15	-9	30	320	610	610	610	686	762	762	762	762	762	762	762	381	0	-10	-10	-10	-10	-10	-3	-11	-20	-31	-44	-58	-74	-91	-107	-123	-137	-150	-160	-169	-176	-181	-185	-186	-186	-184	-180	-175	-169	-161	-153	-143	-133	-124	-116	-108	-101	-95	-90	-87	-84	-81	-79	-77	-75	-74	-73	-73	-75	-77	-80	-84	-89	-93	-96	-99	-101	-102	-102	-100	-98	-96	-92	-88	-85	-81	-78	-75	-72	-70	-68	-66	-66	-65	-64	-63	-62	-61	-60	-59	-58	-56	-54	-51	-48	-45	-41	-36	-32	-28	-24	-20	-17	-14	-12	-10	-9	-8	-8	-8	-9	-11	-14	-17	-22	-28	-35	-43	-51	-59	-68	-76	-84	-90	-95	-100	-103	-105	-106	-107	-107	-106	-105	-104	-103	-101	-100	-98	-98	-98	-98	-100	-103	-106	-111	-117	-124	-132	-140	-150	-159	-168	-176	-183	-189	-194	-198	-200	-201	-202	-202	-202	-202	-202	-203	-205	-207	-209	-212	-215	-219	-224	-228	-232	-236	-239	-241	-243	-243	-241	-238	-233	-227	-222	-218	-213	-209	-206	-203	-202	-201	-201	-201	-200	-200	-200	-200	-200	-200	-200	-201	-200	-200	-200	-200	-199	-198	-197	-195	-194	-192	-189	-186	-183	-179	-175	-171	-167	-164	-160	-157	-154	-152	-150	-149	-148	-148	-148	-149	-150	-151	-153	-155	-157	-159	-161	-163	-165	-167	-169	-170	-172	-174	-175	-177	-179	-180	-182	-184	-186	-187	-189	-191	-193	-194	-196	-197	-198	-199	-200	-200	-201	-201	-201	-201	-201	-200	-200	-200	-200	-200	-200	-200	-199	-199	-199	-199	-199	-199	-199	-199	-199	-199	-199	-199	-199	-199
-2146	-2128	-2104	-2074	-2042	-2005	-1960	-1910	-1855	-1793	-1724	-1649	-1567	-1480	-1388	-1299	-1210	-1125	-1045	-974	-912	-860	-818	-781	-749	-719	-690	-662	-636	-609	-579	-546	-512	-479	-448	-419	-391	-362	-331	-303	-278	-256	-235	-217	-201	-186	-171	-159	-147	-135	-122	-109	-96	-84	-73	-64	-56	-49	-42	-36	-31	-26	-22	-18	-14	-10	-6	-2	30	30	320	610	610	610	686	762	762	762	762	762	762	762	381	0	0	0	-10	-10	-10	-10	-4	-12	-21	-31	-43	-57	-71	-87	-101	-115	-127	-138	-147	-155	-161	-165	-167	-168	-167	-165	-161	-156	-149	-142	-135	-127	-120	-113	-106	-100	-95	-90	-86	-82	-79	-75	-72	-69	-67	-65	-64	-64	-65	-67	-69	-72	-75	-78	-80	-81	-82	-82	-81	-79	-77	-74	-71	-68	-64	-61	-59	-56	-55	-53	-52	-51	-51	-50	-50	-49	-48	-48	-47	-46	-45	-43	-41	-38	-35	-32	-28	-25	-22	-19	-16	-13	-12	-10	-10	-9	-10	-11	-13	-15	-18	-21	-26	-31	-38	-45	-52	-60	-68	-76	-84	-91	-97	-102	-106	-109	-111	-112	-113	-112	-112	-111	-110	-109	-107	-106	-105	-105	-105	-105	-107	-110	-113	-118	-124	-130	-137	-145	-154	-163	-171	-179	-185	-191	-195	-199	-201	-201	-201	-201	-201	-201	-201	-201	-202	-203	-203	-205	-207	-210	-213	-217	-221	-224	-227	-230	-231	-232	-230	-227	-223	-219	-215	-211	-208	-205	-203	-201	-201	-201	-201	-201	-201	-200	-200	-200	-200	-200	-200	-200	-200	-200	-200	-200	-200	-199	-198	-196	-194	-192	-189	-185	-181	-176	-171	-166	-162	-157	-153	-149	-146	-143	-140	-139	-138	-137	-137	-138	-139	-140	-142	-144	-146	-148	-151	-153	-155	-158	-160	-162	-164	-166	-168	-170	-172	-174	-176	-179	-181	-183	-186	-188	-190	-192	-194	-196	-198	-199	-200	-201	-201	-201	-201	-201	-201	-201	-200	-200	-200	-200	-200	-200	-200	-200	-200	-200	-200	-200	-199	-199	-199	-199	-199	-198	-198	-198
-2075	-2045	-2007	-1965	-1916	-1861	-1800	-1734	-1663	-1588	-1510	-1431	-1348	-1264	-1181	-1100	-1022	-948	-879	-817	-761	-714	-675	-643	-612	-583	-557	-532	-510	-489	-466	-439	-409	-383	-357	-334	-311	-289	-267	-248	-233	-222	-212	-203	-192	-180	-167	-154	-140	-124	-107	-90	-75	-62	-51	-42	-34	-28	-22	-17	-13	-9	-6	-3	-1	-10	-10	-10	-10	-10	-10	-10	-10	-10	-10	-10	-10	-10	-10	762	762	762	381	0	0	0	0	-10	-10	-10	-10	-5	-12	-20	-30	-41	-53	-66	-80	-93	-104	-114	-123	-131	-137	-142	-145	-147	-147	-147	-145	-141	-137	-132	-126	-121	-116	-111	-106	-101	-97	-93	-89	-85	-80	-76	-71	-66	-62	-59	-56	-54	-54	-54	-55	-57	-58	-60	-62	-63	-63	-63	-62	-61	-59	-56	-54	-51	-48	-45	-43	-41	-39	-38	-38	-37	-37	-36	-36	-36	-36	-35	-35	-34	-33	-32	-31	-29	-26	-24	-21	-18	-16	-14	-12	-11	-10	-10	-10	-11	-13	-15	-18	-22	-25	-30	-35	-41	-48	-55	-63	-70	-78	-86	-93	-99	-105	-109	-113	-115	-117	-119	-119	-119	-119	-118	-117	-116	-115	-114	-113	-113	-113	-114	-115	-118	-121	-126	-131	-137	-143	-150	-158	-166	-173	-180	-186	-191	-194	-197	-199	-200	-200	-200	-200	-200	-200	-200	-199	-199	-199	-200	-201	-203	-205	-208	-212	-214	-217	-219	-220	-221	-220	-217	-213	-209	-205	-203	-200	-198	-197	-196	-196	-197	-198	-198	-198	-198	-198	-198	-198	-198	-199	-199	-199	-199	-200	-200	-200	-199	-198	-197	-194	-192	-188	-184	-179	-174	-168	-163	-157	-152	-147	-143	-139	-135	-132	-130	-128	-127	-127	-127	-128	-130	-131	-134	-136	-138	-141	-143	-146	-148	-151	-153	-156	-158	-160	-163	-165	-168	-170	-173	-176	-179	-182	-184	-187	-190	-193	-195	-197	-198	-200	-200	-201	-201	-201	-201	-201	-201	-200	-200	-200	-200	-200	-200	-200	-200	-200	-200	-200	-200	-200	-199	-199	-199	-199	-198	-198	-198
-1967	-1923	-1873	-1817	-1755	-1688	-1617	-1543	-1466	-1384	-1305	-1227	-1151	-1078	-1006	-937	-869	-805	-748	-692	-641	-593	-551	-520	-489	-459	-435	-413	-395	-379	-366	-350	-326	-307	-290	-274	-258	-243	-229	-217	-208	-202	-196	-189	-180	-169	-156	-141	-125	-107	-89	-72	-57	-44	-34	-25	-18	-12	-7	-3	-1	-10	229	305	305	305	312	320	320	320	449	580	580	580	595	610	610	610	610	610	610	610	457	305	305	305	228	152	-10	-10	-10	-10	-5	-11	-19	-28	-37	-48	-60	-72	-82	-91	-100	-108	-114	-120	-124	-127	-129	-130	-129	-128	-125	-122	-118	-114	-111	-108	-105	-102	-99	-96	-92	-88	-82	-77	-71	-65	-59	-54	-50	-46	-44	-42	-42	-42	-43	-43	-44	-45	-45	-45	-45	-44	-42	-40	-37	-34	-32	-29	-27	-25	-24	-23	-22	-22	-22	-22	-21	-21	-21	-21	-21	-21	-21	-21	-20	-20	-18	-16	-14	-12	-10	-9	-8	-8	-9	-10	-11	-14	-17	-20	-25	-29	-34	-39	-45	-52	-58	-66	-73	-81	-88	-95	-102	-108	-113	-117	-121	-123	-125	-126	-127	-127	-126	-126	-125	-124	-123	-122	-122	-122	-122	-123	-124	-127	-130	-134	-138	-143	-149	-155	-162	-168	-175	-181	-186	-190	-194	-196	-198	-199	-199	-199	-199	-199	-199	-198	-198	-197	-197	-197	-197	-198	-201	-203	-206	-208	-209	-210	-211	-211	-209	-206	-201	-197	-193	-190	-188	-186	-185	-185	-185	-187	-189	-190	-191	-192	-193	-194	-195	-196	-196	-197	-198	-198	-199	-199	-199	-199	-198	-196	-194	-191	-187	-182	-177	-171	-166	-160	-154	-148	-143	-138	-133	-129	-126	-123	-121	-119	-118	-118	-119	-120	-122	-124	-126	-128	-131	-134	-136	-139	-142	-145	-147	-150	-153	-155	-158	-161	-164	-167	-170	-174	-177	-181	-184	-187	-190	-193	-196	-198	-199	-200	-201	-201	-201	-201	-201	-201	-200	-200	-200	-200	-200	-200	-200	-200	-200	-200	-200	-200	-200	-199	-199	-199	-199	-198	-198	-198
-1831	-1772	-1710	-1645	-1575	-1502	-1428	-1353	-1278	-1202	-1127	-1056	-988	-925	-866	-809	-752	-695	-641	-593	-542	-492	-443	-401	-366	-335	-312	-294	-276	-268	-263	-262	-256	-249	-242	-235	-229	-221	-213	-206	-200	-194	-188	-179	-168	-154	-139	-122	-105	-87	-71	-55	-41	-30	-21	-13	-7	-2	305	305	305	305	458	610	610	610	610	610	610	610	579	549	549	549	503	457	457	457	457	457	457	457	534	610	610	610	457	305	305	-10	-10	-10	-1	-5	-11	-18	-25	-33	-43	-52	-61	-69	-77	-85	-92	-99	-104	-109	-111	-113	-115	-115	-114	-112	-110	-108	-106	-104	-103	-102	-100	-97	-93	-89	-84	-77	-71	-63	-56	-50	-44	-39	-35	-32	-30	-29	-29	-29	-29	-29	-29	-29	-29	-29	-27	-25	-23	-20	-18	-16	-14	-12	-11	-10	-9	-8	-8	-8	-8	-8	-9	-10	-10	-11	-12	-12	-12	-12	-11	-9	-8	-7	-6	-6	-6	-7	-8	-10	-13	-17	-21	-26	-32	-37	-43	-49	-56	-63	-70	-77	-84	-91	-98	-105	-111	-117	-121	-126	-129	-131	-133	-134	-135	-135	-134	-134	-133	-133	-132	-131	-131	-131	-131	-132	-134	-136	-139	-142	-146	-150	-155	-161	-166	-172	-177	-182	-186	-190	-193	-195	-197	-198	-199	-199	-198	-198	-198	-197	-197	-196	-196	-196	-196	-197	-199	-201	-202	-203	-203	-203	-203	-203	-201	-197	-191	-186	-181	-178	-175	-173	-170	-170	-170	-173	-176	-179	-182	-184	-187	-189	-191	-192	-193	-195	-196	-196	-197	-197	-197	-197	-196	-194	-192	-189	-185	-180	-175	-170	-164	-158	-152	-146	-140	-134	-129	-125	-120	-117	-114	-112	-111	-110	-110	-111	-113	-115	-117	-119	-122	-125	-128	-130	-133	-136	-139	-142	-145	-148	-151	-154	-158	-161	-165	-168	-172	-176	-180	-184	-188	-191	-194	-196	-198	-200	-201	-201	-201	-201	-201	-201	-200	-200	-200	-200	-200	-200	-200	-200	-200	-200	-200	-199	-199	-199	-199	-199	-199	-198	-198	-197
-1673	-1603	-1532	-1461	-1388	-1314	-1241	-1169	-1099	-1031	-964	-901	-842	-789	-742	-697	-651	-602	-552	-497	-449	-400	-353	-307	-268	-237	-216	-202	-200	-197	-199	-203	-208	-211	-212	-212	-211	-209	-206	-203	-199	-192	-183	-171	-158	-142	-125	-107	-87	-68	-52	-39	183	183	244	305	305	305	305	305	305	305	458	610	610	610	610	610	610	610	579	549	549	549	503	457	457	457	457	457	457	457	534	610	610	610	457	305	305	305	-10	-10	-10	-1	-5	-9	-15	-21	-27	-34	-41	-48	-56	-64	-72	-79	-86	-92	-97	-101	-104	-106	-106	-105	-104	-103	-102	-102	-102	-101	-100	-97	-94	-89	-84	-77	-70	-62	-53	-46	-39	-33	-28	-24	-21	-19	-17	-16	-16	-16	-16	-16	-16	-16	-15	-14	-12	-9	-7	-6	-4	-3	-2	-1	-1	-1	-1	-1	-1	-1	-1	-2	-2	-3	-4	-4	-5	-5	-5	-4	-3	-3	-3	-3	-4	-6	-8	-12	-16	-21	-27	-33	-40	-46	-53	-60	-67	-74	-81	-88	-95	-102	-108	-115	-121	-126	-131	-135	-138	-140	-142	-143	-143	-143	-143	-143	-142	-142	-141	-141	-141	-141	-141	-142	-144	-146	-148	-151	-154	-158	-162	-166	-171	-175	-179	-183	-187	-190	-193	-195	-197	-198	-198	-198	-198	-198	-198	-197	-197	-196	-196	-196	-196	-197	-198	-199	-199	-199	-196	-194	-193	-191	-186	-181	-174	-167	-162	-159	-156	-153	-151	-151	-153	-157	-162	-167	-171	-176	-180	-183	-186	-188	-190	-192	-193	-194	-195	-195	-195	-195	-194	-192	-190	-187	-183	-179	-174	-168	-162	-156	-150	-144	-138	-132	-126	-121	-116	-112	-109	-106	-104	-103	-103	-103	-104	-106	-108	-111	-113	-116	-119	-122	-125	-128	-131	-134	-137	-141	-144	-147	-151	-154	-158	-163	-167	-172	-176	-181	-185	-189	-192	-195	-198	-199	-200	-201	-201	-201	-201	-201	-200	-200	-200	-200	-200	-200	-200	-200	-200	-200	-199	-199	-199	-199	-199	-199	-198	-198	-198	-197
-1499	-1424	-1351	-1279	-1207	-1137	-1069	-1004	-940	-878	-819	-762	-711	-666	-625	-588	-551	-510	-465	-421	-377	-335	-295	-255	-220	-192	-174	-167	-164	-166	-169	-175	-183	-190	-195	-198	-200	-200	-199	-198	-194	-185	-173	-159	-143	-126	-107	-88	-69	-51	92	183	183	183	244	305	305	305	305	305	305	305	458	610	610	610	610	610	610	610	579	549	549	549	503	457	457	457	457	457	457	457	534	610	610	610	457	305	305	305	-10	-10	-10	-10	-10	-1	-4	-8	-13	-17	-22	-27	-35	-43	-53	-62	-71	-79	-86	-93	-98	-102	-104	-103	-103	-102	-102	-101	-101	-101	-100	-97	-93	-88	-82	-75	-68	-59	-50	-42	-33	-27	-21	-17	-13	-10	-9	-8	-7	-7	-7	-7	-7	-7	-6	-5	-4	-3	-2	-1	-1	457	457	457	-10	-10	-10	-10	-10	-10	-10	-10	-10	-10	-1	-1	-1	-1	-1	-1	-1	-1	-1	-2	-3	-6	-9	-13	-19	-25	-32	-40	-48	-56	-64	-72	-80	-87	-94	-101	-108	-114	-120	-126	-131	-136	-140	-144	-147	-149	-150	-151	-152	-152	-152	-152	-151	-151	-151	-151	-151	-151	-152	-153	-154	-156	-158	-160	-163	-166	-169	-172	-176	-179	-182	-185	-188	-191	-193	-195	-197	-198	-199	-199	-199	-199	-199	-198	-198	-197	-197	-197	-197	-197	-197	-197	-195	-192	-187	-181	-176	-171	-164	-157	-149	-142	-137	-134	-132	-131	-130	-132	-136	-141	-147	-154	-161	-168	-173	-178	-182	-185	-187	-189	-191	-192	-193	-194	-194	-193	-192	-190	-188	-185	-182	-178	-173	-168	-162	-156	-150	-143	-137	-131	-125	-119	-113	-108	-104	-101	-98	-97	-96	-96	-97	-99	-101	-103	-106	-109	-112	-115	-118	-121	-124	-127	-130	-133	-137	-140	-144	-148	-152	-156	-161	-166	-172	-177	-182	-187	-191	-194	-197	-199	-200	-201	-201	-201	-201	-200	-200	-200	-200	-200	-200	-200	-200	-200	-200	-200	-199	-199	-199	-199	-199	-198	-198	-198	-197	-197
-1319	-1242	-1169	-1099	-1032	-969	-908	-851	-795	-741	-689	-640	-596	-555	-520	-486	-453	-420	-386	-354	-322	-291	-261	-231	-205	-186	-173	-166	-162	-162	-164	-169	-176	-183	-189	-193	-195	-195	-193	-190	-183	-173	-158	-142	-125	-106	-88	-70	91	91	168	244	244	244	274	305	305	305	381	457	457	457	534	610	610	610	610	610	610	610	556	503	503	503	503	503	503	503	472	442	442	442	465	488	488	488	373	259	259	259	167	-10	-10	-10	-10	-10	-10	-10	-1	-2	-4	-8	-15	-24	-35	-46	-56	-66	-77	-87	-96	-101	-103	-104	-104	-103	-102	-101	-99	-99	-97	-94	-90	-84	-78	-71	-63	-55	-46	-37	-28	-22	-16	-11	-8	-5	-3	-2	-1	-1	-1	-1	-1	-1	-1	-1	-1	-10	-10	457	457	457	457	457	304	152	152	152	152	152	152	152	-10	-10	-10	-10	-10	-10	-10	-10	-10	-10	-1	-1	-3	-7	-11	-16	-22	-30	-38	-47	-57	-66	-75	-84	-92	-100	-108	-114	-121	-126	-132	-137	-142	-146	-150	-153	-156	-158	-159	-160	-161	-161	-161	-161	-161	-161	-161	-161	-161	-161	-162	-163	-164	-165	-167	-169	-171	-174	-176	-179	-181	-184	-186	-189	-191	-193	-195	-197	-199	-200	-201	-201	-202	-202	-201	-201	-200	-199	-199	-198	-198	-198	-197	-195	-191	-185	-177	-168	-159	-150	-141	-132	-124	-117	-112	-110	-109	-110	-112	-116	-122	-128	-136	-144	-153	-161	-168	-173	-178	-182	-185	-187	-189	-190	-191	-192	-192	-191	-190	-189	-187	-184	-181	-177	-173	-168	-162	-156	-150	-144	-137	-130	-124	-117	-111	-106	-101	-97	-94	-92	-91	-91	-91	-92	-94	-97	-99	-102	-105	-108	-111	-114	-117	-120	-123	-126	-130	-133	-137	-141	-145	-150	-155	-161	-167	-173	-178	-183	-188	-192	-195	-198	-199	-200	-200	-200	-200	-200	-200	-200	-200	-200	-200	-200	-200	-200	-200	-200	-199	-199	-199	-199	-199	-198	-198	-198	-197	-197
-1133	-1055	-983	-917	-857	-802	-750	-701	-655	-611	-568	-528	-491	-456	-424	-395	-368	-342	-318	-295	-274	-255	-235	-217	-201	-189	-180	-175	-171	-169	-170	-173	-178	-184	-189	-192	-193	-192	-188	-180	-170	-156	-139	-121	-101	-82	-64	-48	183	183	244	305	305	305	-10	-10	-10	-10	458	610	610	610	610	610	610	610	610	610	610	610	533	-10	-10	457	503	549	549	549	488	427	427	427	396	366	366	366	289	213	213	213	182	152	152	152	-10	-10	0	0	0	-10	-10	-10	-1	-10	-21	-33	-45	-57	-69	-80	-90	-96	-100	-101	-101	-101	-99	-98	-96	-94	-92	-88	-83	-78	-71	-64	-56	-48	-40	-32	-24	-18	0	0	153	305	305	305	305	305	305	305	167	30	30	30	-10	-10	-10	-10	-10	-10	-10	457	381	305	305	305	305	305	305	305	152	0	0	0	-10	-10	-10	-10	-10	-10	-10	-1	-4	-8	-13	-19	-27	-35	-45	-55	-65	-76	-85	-95	-103	-112	-119	-126	-132	-138	-143	-148	-152	-156	-160	-163	-165	-167	-168	-169	-170	-170	-170	-170	-170	-170	-170	-170	-171	-171	-172	-173	-174	-175	-177	-178	-180	-182	-184	-186	-188	-189	-191	-193	-195	-197	-199	-201	-202	-203	-205	-205	-206	-206	-206	-205	-204	-204	-203	-202	-201	-200	-198	-194	-189	-181	-171	-161	-150	-141	-131	-122	-114	-108	-104	-102	-102	-104	-106	-111	-116	-123	-131	-140	-149	-158	-165	-171	-176	-180	-183	-185	-187	-189	-190	-190	-190	-190	-189	-188	-186	-184	-181	-177	-173	-168	-163	-157	-151	-145	-138	-131	-124	-117	-111	-105	-99	-94	-91	-88	-87	-86	-86	-87	-89	-91	-94	-96	-99	-102	-105	-108	-111	-114	-117	-120	-123	-127	-130	-134	-138	-143	-148	-154	-160	-167	-173	-178	-184	-189	-193	-196	-198	-199	-200	-200	-200	-201	-201	-200	-200	-200	-200	-200	-200	-200	-200	-200	-199	-199	-199	-199	-199	-198	-198	-198	-198	-197
-943	-867	-797	-734	-679	-632	-590	-552	-516	-481	-448	-418	-389	-362	-337	-314	-294	-277	-262	-250	-237	-226	-216	-207	-199	-192	-187	-184	-181	-179	-179	-180	-184	-188	-191	-193	-193	-190	-184	-174	-161	-144	-125	-104	-83	-64	-46	-31	-19	-10	-4	-1	-10	-10	-10	-1	-1	-1	-1	-1	-2	-2	-1	-1	-10	-10	-10	-10	610	610	533	457	457	457	503	549	549	549	488	427	427	427	396	366	366	366	289	213	213	213	182	152	152	152	76	0	0	0	0	-10	-10	-10	-10	-1	-10	-21	-33	-45	-57	-67	-77	-85	-90	-92	-93	-93	-92	-90	-89	-87	-84	-80	-76	-70	-64	-57	-50	-42	-35	-27	-21	-15	0	0	153	305	305	305	305	305	305	305	167	30	30	30	244	457	457	457	457	457	457	457	381	305	305	305	305	305	305	305	152	0	0	0	0	-10	-10	-10	-10	-10	-1	-2	-6	-10	-16	-23	-31	-41	-51	-62	-73	-84	-94	-104	-113	-121	-129	-136	-142	-148	-153	-158	-162	-166	-169	-172	-174	-176	-177	-178	-178	-178	-178	-178	-179	-179	-179	-180	-180	-181	-182	-183	-184	-185	-186	-187	-189	-190	-192	-193	-195	-196	-197	-199	-201	-203	-204	-206	-208	-209	-210	-211	-212	-212	-212	-211	-211	-210	-209	-208	-206	-205	-202	-198	-191	-183	-174	-164	-154	-144	-135	-126	-118	-112	-109	-107	-107	-108	-110	-114	-119	-126	-134	-142	-150	-158	-165	-170	-175	-179	-182	-185	-186	-188	-189	-189	-189	-189	-188	-187	-186	-183	-181	-178	-174	-170	-165	-159	-154	-147	-141	-133	-126	-119	-112	-105	-99	-93	-89	-86	-84	-83	-83	-84	-85	-87	-90	-92	-95	-97	-100	-103	-106	-108	-111	-114	-117	-120	-123	-127	-131	-135	-140	-146	-152	-158	-164	-171	-177	-182	-187	-192	-195	-197	-199	-200	-201	-201	-201	-201	-200	-200	-200	-200	-200	-200	-200	-200	-200	-199	-199	-199	-199	-199	-198	-198	-198	-197
-774	-699	-628	-566	-515	-473	-440	-413	-387	-362	-341	-321	-303	-285	-269	-255	-242	-231	-223	-216	-209	-205	-201	-198	-195	-193	-191	-190	-188	-187	-187	-188	-191	-194	-196	-196	-195	-190	-182	-171	-155	-136	-115	-93	-72	-52	-35	-21	-11	-4	-1	-10	-10	-10	-1	-2	-4	-6	458	610	610	610	610	610	610	610	610	610	610	610	533	457	457	457	503	549	549	549	488	427	427	427	396	366	366	366	289	213	213	213	182	152	152	152	76	0	0	0	0	0	-10	-10	-10	-10	-1	-11	-21	-32	-42	-52	-61	-69	-74	-77	-79	-79	-79	-79	-78	-77	-74	-71	-67	-62	-56	-50	-44	-37	-30	-24	-17	-12	-8	-4	-2	305	305	305	305	305	305	305	167	30	30	30	244	457	457	457	457	457	457	457	381	305	305	305	305	305	305	305	152	0	0	0	0	0	0	0	-10	-10	-1	-4	-8	-13	-20	-28	-37	-47	-58	-69	-80	-91	-102	-112	-121	-129	-138	-145	-151	-157	-162	-167	-171	-175	-178	-181	-183	-184	-185	-186	-186	-186	-186	-187	-187	-187	-188	-189	-190	-190	-191	-192	-193	-194	-195	-196	-197	-198	-200	-201	-203	-204	-205	-207	-208	-210	-212	-214	-215	-216	-217	-218	-219	-219	-219	-219	-218	-217	-216	-215	-213	-211	-208	-204	-198	-190	-181	-172	-163	-154	-146	-138	-130	-125	-121	-119	-118	-119	-120	-124	-128	-134	-140	-147	-154	-161	-167	-172	-176	-180	-182	-185	-186	-187	-188	-189	-189	-188	-188	-187	-185	-184	-181	-179	-175	-172	-167	-162	-157	-151	-144	-137	-129	-122	-114	-106	-100	-94	-89	-85	-83	-82	-81	-82	-83	-85	-87	-89	-92	-94	-96	-99	-101	-104	-106	-109	-111	-114	-117	-120	-123	-127	-131	-137	-142	-149	-155	-162	-168	-175	-181	-187	-191	-194	-197	-199	-200	-201	-201	-200	-200	-200	-200	-200	-200	-200	-200	-200	-200	-199	-199	-199	-199	-199	-198	-198	-198	-198
-623	-551	-481	-426	-384	-349	-320	-299	-284	-271	-260	-250	-241	-233	-225	-217	-210	-205	-201	-198	-196	-195	-195	-195	-195	-195	-195	-194	-193	-193	-193	-195	-197	-200	-201	-200	-198	-192	-184	-171	-155	-136	-114	-92	-72	137	191	244	-9	-9	-5	-3	-3	-4	-6	-8	-11	-14	-18	-22	-25	-25	-24	-21	-17	-13	-9	-4	-1	-10	389	351	351	351	404	458	458	458	412	366	366	366	351	336	336	336	297	259	259	259	243	228	228	228	182	137	137	137	68	0	0	-10	-10	-10	-10	-3	-12	-20	-29	-37	-45	-51	-57	-60	-63	-64	-65	-66	-66	-65	-64	-61	-58	-54	-49	-43	-37	-31	-25	-20	-14	-10	-6	-3	-1	-1	229	229	267	305	305	305	274	243	243	243	358	472	472	472	464	457	457	457	381	305	305	305	305	305	305	305	205	106	106	106	129	152	152	152	76	0	0	0	0	0	0	0	-55	-54	-65	-77	-88	-99	-110	-120	-129	-138	-146	-153	-160	-165	-170	-175	-179	-182	-185	-187	-189	-190	-191	-192	-192	-192	-193	-193	-194	-195	-196	-197	-198	-199	-200	-201	-202	-203	-204	-205	-206	-207	-208	-209	-211	-212	-213	-214	-216	-218	-219	-221	-222	-223	-224	-225	-226	-226	-226	-226	-226	-226	-225	-223	-221	-219	-215	-211	-206	-199	-191	-183	-175	-168	-160	-153	-146	-141	-137	-135	-134	-134	-135	-138	-141	-145	-150	-156	-161	-166	-171	-175	-178	-181	-184	-185	-187	-188	-188	-188	-188	-188	-188	-187	-186	-184	-182	-180	-177	-174	-170	-166	-161	-155	-148	-141	-134	-125	-117	-109	-102	-95	-90	-86	-83	-82	-81	-82	-83	-84	-86	-88	-90	-92	-94	-96	-98	-100	-102	-105	-107	-109	-111	-113	-116	-119	-123	-127	-133	-138	-145	-151	-159	-166	-173	-180	-185	-190	-193	-196	-198	-199	-200	-200	-200	-199	-199	-200	-200	-200	-200	-200	-200	-200	-199	-199	-199	-199	-198	-198	-198	-198
-485	-423	-371	-330	-294	-265	-243	-226	-215	-211	-209	-208	-207	-205	-203	-201	-198	-195	-194	-193	-194	-194	-195	-195	-195	-196	-196	-196	-195	-194	-194	-197	-201	-204	-205	-204	-200	-195	-187	-176	-162	-145	-126	-105	-87	274	290	305	305	305	305	305	305	305	305	305	305	305	336	366	366	366	305	-32	-31	-25	-18	-11	-5	-1	244	-10	-10	-10	-10	-10	-10	-10	-10	-10	-10	-10	-1	305	305	305	305	305	305	305	305	305	305	305	289	274	274	274	137	0	0	-10	-10	-10	-10	-10	-4	-11	-17	-24	-30	-35	-40	-44	-47	-50	-52	-54	-54	-54	-53	-52	-49	-45	-41	-36	-31	-26	-21	-16	-12	-8	-5	-2	-1	-1	-10	-10	229	305	305	305	381	457	457	457	473	488	488	488	472	457	457	457	381	305	305	305	305	305	305	305	259	213	213	213	259	305	305	305	152	0	0	0	-28	-28	-35	-43	-53	-64	-75	-86	-98	-109	-119	-129	-138	-147	-155	-162	-168	-173	-178	-182	-185	-188	-190	-192	-194	-194	-195	-195	-196	-197	-198	-199	-200	-202	-203	-205	-206	-208	-209	-210	-211	-212	-213	-213	-214	-215	-216	-217	-218	-219	-220	-222	-223	-224	-226	-227	-228	-229	-230	-231	-232	-233	-233	-234	-234	-233	-232	-231	-229	-226	-222	-218	-212	-207	-200	-194	-187	-181	-174	-168	-163	-158	-155	-153	-151	-151	-151	-153	-155	-158	-162	-165	-169	-173	-176	-179	-181	-184	-185	-187	-188	-188	-189	-189	-189	-188	-188	-187	-187	-185	-184	-182	-180	-177	-174	-170	-166	-160	-154	-147	-139	-131	-122	-113	-105	-98	-92	-88	-85	-83	-83	-83	-84	-86	-87	-89	-90	-92	-93	-95	-97	-98	-100	-101	-103	-104	-106	-108	-109	-111	-114	-118	-123	-128	-134	-141	-148	-156	-164	-172	-178	-184	-188	-192	-194	-196	-198	-198	-198	-199	-199	-199	-199	-200	-200	-200	-200	-200	-200	-199	-199	-199	-199	-198	-198	-198
-408	-358	-319	-288	-259	-237	-219	-206	-197	-192	-190	-189	-190	-191	-191	-191	-190	-190	-191	-192	-192	-192	-191	-190	-190	-190	-191	-192	-192	-191	-192	-194	-195	-196	-196	-194	-191	-187	-182	-176	-168	-157	-142	-127	274	274	290	305	305	305	305	305	305	305	305	305	305	305	336	366	366	366	305	244	244	244	244	244	244	244	244	244	244	244	305	366	366	366	335	305	305	0	-1	-1	305	305	305	305	305	305	305	305	305	305	289	274	274	274	137	0	-10	-10	-10	-10	-10	-10	-10	-2	-7	-12	-17	-21	-25	-29	-32	-35	-38	-40	-42	-42	-42	-41	-39	-36	-33	-29	-25	-21	-17	-13	-10	-7	-4	-3	-1	-1	-1	-10	-10	-10	305	305	381	457	457	457	473	488	488	488	472	457	457	457	381	305	305	305	305	305	305	-3	-3	-6	-9	-12	-14	-16	-18	-20	-22	-24	-27	-31	-36	-42	-49	-57	-66	-76	-86	-97	-108	-119	-129	-138	-147	-155	-162	-169	-174	-179	-183	-187	-190	-192	-194	-196	-197	-197	-198	-199	-200	-201	-203	-205	-206	-208	-209	-211	-213	-215	-216	-217	-218	-219	-220	-220	-221	-222	-223	-224	-225	-226	-226	-227	-228	-229	-230	-231	-232	-233	-234	-235	-236	-237	-238	-238	-238	-238	-237	-236	-234	-231	-227	-223	-218	-213	-208	-203	-198	-193	-188	-183	-179	-176	-173	-171	-170	-169	-168	-169	-170	-171	-173	-175	-178	-179	-181	-183	-185	-186	-187	-188	-189	-189	-189	-189	-189	-189	-189	-188	-188	-187	-186	-184	-182	-180	-177	-174	-170	-165	-159	-152	-145	-136	-128	-120	-113	-106	-101	-96	-93	-90	-88	-88	-88	-89	-90	-92	-93	-94	-94	-95	-96	-97	-98	-99	-100	-101	-102	-103	-104	-105	-108	-111	-115	-120	-126	-132	-139	-146	-153	-161	-168	-174	-180	-184	-188	-191	-194	-196	-197	-198	-198	-199	-199	-199	-200	-200	-200	-200	-200	-199	-199	-199	-199	-199	-198	-198
-357	-316	-283	-257	-234	-216	-203	-194	-188	-184	-183	-183	-183	-185	-186	-186	-184	-184	-185	-184	-183	-180	-177	-174	-171	-171	-172	-173	-172	-171	-172	-174	-177	-180	-183	-182	-179	-177	-174	-170	-165	-159	-151	-140	-125	274	290	305	305	305	-70	-69	-58	305	305	305	305	305	336	366	366	366	305	244	244	244	244	244	244	244	244	244	244	244	305	366	366	366	335	305	305	305	305	305	305	305	305	305	305	305	305	305	305	305	289	274	274	274	137	0	0	-10	-10	-10	-10	-10	-10	-10	-10	-2	-7	-11	-14	-18	-21	-24	-27	-29	-31	-32	-32	-32	-30	-28	-25	-22	-19	-16	-13	-10	-7	-5	-3	-2	-1	152	152	152	229	305	305	305	381	457	457	457	473	488	488	488	472	457	457	457	381	305	-10	-10	-10	-2	-5	-8	-11	-14	-18	-22	-25	-28	-31	-33	-35	-37	-40	-44	-49	-55	-62	-70	-79	-89	-99	-110	-121	-131	-141	-149	-158	-165	-171	-177	-181	-185	-189	-192	-194	-197	-199	-200	-201	-201	-201	-203	-204	-206	-208	-210	-211	-213	-214	-216	-218	-220	-222	-223	-224	-224	-225	-225	-226	-226	-227	-228	-229	-230	-230	-230	-231	-231	-232	-233	-234	-234	-235	-236	-237	-238	-240	-241	-241	-241	-241	-240	-238	-235	-232	-228	-224	-220	-216	-211	-207	-203	-199	-195	-192	-189	-187	-185	-184	-183	-182	-182	-182	-183	-184	-185	-186	-187	-187	-188	-189	-190	-191	-191	-191	-191	-191	-191	-191	-190	-190	-190	-189	-189	-188	-187	-186	-184	-182	-180	-176	-172	-167	-161	-154	-145	-137	-129	-122	-115	-110	-105	-101	-97	-95	-94	-94	-95	-96	-96	-97	-97	-97	-97	-97	-98	-98	-99	-99	-99	-99	-99	-100	-100	-102	-104	-108	-112	-118	-123	-130	-137	-145	-153	-160	-167	-174	-179	-183	-187	-190	-193	-195	-196	-197	-198	-199	-199	-200	-200	-200	-200	-200	-200	-199	-199	-199	-199	-199	-198
-323	-289	-260	-236	-219	-206	-196	-190	-186	-184	-184	-183	-182	-180	-177	-172	-167	-162	-158	-153	-147	-139	-132	-127	-124	-123	-125	-126	-125	-124	-124	-125	-127	-130	-135	-136	-135	-135	-139	-135	-135	-136	-136	-134	-132	-132	-131	168	-111	-110	-117	320	320	320	389	457	457	457	473	488	488	488	457	427	427	427	427	427	427	427	465	503	503	503	518	533	533	533	426	320	320	320	396	472	472	472	480	488	488	488	404	320	320	320	358	396	396	396	335	274	274	274	274	274	274	274	137	0	-10	-10	-1	-4	-7	-10	-13	-15	-18	-20	-23	-24	-24	-24	-23	-21	-19	-17	-14	-12	-9	-7	-5	152	152	152	190	228	228	228	267	305	305	305	343	381	381	381	389	397	397	397	389	381	381	381	267	153	153	-7	-7	-10	-13	-17	-21	-24	-29	-33	-38	-42	-44	-47	-49	-51	-54	-58	-64	-71	-79	-87	-96	-106	-116	-127	-138	-147	-156	-164	-170	-176	-180	-185	-188	-191	-194	-197	-200	-202	-205	-206	-206	-206	-206	-207	-209	-211	-213	-214	-215	-216	-217	-218	-221	-223	-225	-225	-226	-226	-226	-226	-226	-227	-228	-229	-230	-230	-230	-230	-230	-230	-230	-231	-231	-232	-233	-234	-235	-236	-238	-239	-241	-241	-241	-241	-239	-237	-234	-231	-227	-224	-220	-217	-213	-209	-206	-203	-200	-198	-197	-195	-194	-193	-192	-191	-191	-191	-192	-192	-192	-193	-193	-193	-194	-194	-194	-194	-194	-193	-193	-193	-192	-192	-192	-192	-191	-191	-191	-190	-190	-189	-187	-186	-183	-180	-176	-171	-165	-158	-151	-144	-138	-131	-125	-119	-115	-111	-108	-105	-104	-104	-103	-102	-102	-102	-101	-101	-100	-100	-100	-99	-99	-99	-99	-98	-98	-98	-99	-101	-104	-108	-113	-118	-124	-131	-138	-146	-154	-161	-168	-174	-179	-183	-187	-190	-193	-195	-197	-198	-199	-200	-200	-200	-200	-200	-200	-200	-200	-199	-199	-199	-199	-199
-310	-274	-245	-223	-209	-200	-193	-188	-186	-184	-183	-181	-176	-169	-160	-151	-141	-132	-122	-112	-101	-88	-77	-69	-66	-67	-68	-70	-69	-68	-68	-68	-67	-72	-76	-76	-76	-78	-79	-82	-86	-91	-98	-104	-108	-109	-107	-105	-99	-95	-84	-88	-80	-73	-72	-75	-78	-88	-93	-97	-99	-105	610	610	610	610	610	610	610	610	686	762	762	762	731	701	701	701	518	335	335	335	488	640	640	640	656	671	671	671	503	335	335	335	427	518	518	518	534	549	549	549	549	549	549	549	274	-10	-10	-10	-10	-1	-3	-6	-8	-10	-11	-13	-15	-16	-17	-17	-16	-15	-13	-11	-10	-8	-6	-4	-3	-2	-1	-1	-10	-10	305	305	305	305	305	305	305	305	305	305	305	305	305	305	305	305	305	305	152	0	0	0	0	0	-32	-31	-35	-39	-43	-48	-52	-56	-59	-61	-63	-65	-68	-73	-80	-89	-98	-108	-117	-127	-137	-148	-159	-168	-175	-181	-184	-187	-190	-192	-194	-195	-197	-199	-201	-204	-206	-206	-206	-205	-204	-205	-207	-209	-211	-211	-211	-211	-212	-213	-216	-218	-220	-221	-221	-221	-220	-221	-221	-222	-223	-224	-225	-225	-225	-224	-223	-223	-223	-224	-224	-225	-226	-226	-228	-230	-232	-235	-237	-238	-239	-239	-238	-237	-235	-232	-229	-226	-222	-219	-216	-213	-210	-208	-206	-204	-202	-201	-200	-199	-198	-197	-197	-197	-197	-197	-198	-198	-198	-198	-198	-198	-197	-197	-197	-196	-196	-195	-195	-194	-194	-194	-194	-194	-194	-194	-193	-193	-192	-191	-190	-188	-185	-181	-177	-172	-166	-161	-155	-149	-143	-138	-133	-128	-124	-120	-117	-115	-113	-111	-110	-108	-107	-106	-105	-104	-103	-102	-101	-100	-99	-99	-98	-98	-99	-100	-103	-106	-110	-115	-121	-127	-134	-142	-149	-156	-163	-169	-175	-180	-185	-188	-191	-194	-196	-198	-199	-200	-200	-200	-201	-201	-200	-200	-200	-200	-199	-199	-199	-199
-287	-257	-230	-212	-201	-193	-186	-181	-177	-174	-171	-166	-158	-146	-133	-119	-106	-94	-81	-67	-52	-39	-28	91	91	-22	-22	-23	-23	-23	-22	-21	-20	-22	-25	-28	305	305	458	610	610	610	594	579	579	-96	-96	-90	-89	-76	-75	-65	-58	-52	-58	-51	-53	-59	-65	-70	-75	-79	-85	-83	-80	-65	-64	-55	610	610	686	762	762	762	731	701	701	701	518	335	335	335	488	640	640	640	656	671	671	671	503	335	335	335	427	518	518	518	534	549	549	549	549	549	549	549	274	0	-10	-10	-10	-10	-1	-2	-4	-5	-6	-8	-9	-10	-10	-11	-10	-10	-9	-7	-6	-5	-4	0	153	305	305	305	305	305	305	305	305	305	-10	-10	-10	-10	305	305	-3	-3	-5	-7	-9	-12	-15	-18	-25	-25	-28	-32	-35	-39	-44	-48	-51	-55	-59	-63	-66	-70	-73	-75	-77	-79	-82	-88	-96	-106	-117	-127	-137	-147	-157	-168	-178	-187	-193	-196	-197	-197	-198	-198	-197	-197	-197	-197	-197	-197	-197	-196	-194	-191	-190	-190	-191	-193	-194	-195	-195	-195	-195	-197	-201	-204	-206	-206	-207	-207	-207	-207	-208	-209	-211	-212	-212	-212	-212	-211	-210	-209	-209	-210	-211	-212	-213	-215	-217	-220	-224	-228	-231	-234	-235	-236	-236	-235	-233	-231	-228	-225	-222	-220	-217	-214	-212	-210	-208	-207	-205	-204	-203	-202	-201	-201	-200	-200	-200	-201	-201	-201	-201	-201	-201	-201	-201	-200	-200	-200	-199	-199	-198	-198	-197	-197	-197	-197	-197	-197	-197	-196	-196	-196	-195	-193	-192	-189	-188	-185	-182	-179	-174	-169	-164	-158	-153	-148	-143	-138	-133	-128	-125	-122	-119	-117	-115	-113	-111	-109	-108	-106	-105	-103	-102	-100	-99	-99	-99	-100	-102	-105	-109	-113	-118	-124	-131	-138	-145	-152	-159	-166	-172	-177	-182	-187	-190	-193	-196	-198	-199	-200	-201	-201	-201	-201	-201	-200	-200	-200	-199	-199	-199	-198
-259	-233	-213	-199	-189	-180	-172	-163	-156	-149	-142	-133	-122	-108	-94	-80	-67	-56	-45	-33	-22	244	167	91	-1	-1	-1	-2	-2	-2	-1	-10	-10	-10	-1	305	305	305	458	610	610	610	594	579	579	579	304	30	30	30	183	-49	-48	-43	-38	-32	-30	-30	-32	-34	-40	-45	-50	-52	-49	-46	-45	-40	-34	-27	-15	-14	762	762	731	701	701	-10	-10	-1	-1	-1	488	640	640	640	656	671	671	671	503	335	335	335	427	518	518	518	534	549	549	549	549	549	549	549	274	0	-10	-10	-10	-10	-10	-10	-1	-1	-2	-3	-4	-5	-5	-5	-5	-5	-4	-4	-3	0	0	0	153	305	305	305	305	305	305	305	305	305	305	305	305	305	305	305	-9	-8	-12	-15	-19	-24	-28	-32	-37	-41	-45	-49	-52	-56	-60	-63	-67	-70	-73	-76	-79	-82	-85	-88	-90	-93	-96	-102	-111	-121	-132	-143	-153	-164	-173	-184	-193	-201	-206	-208	-208	-206	-204	-202	-198	-195	-191	-186	-181	-177	-173	-168	-162	-156	-152	-151	-152	-152	-154	-156	-158	-159	-160	-164	-170	-174	-176	-178	-179	-180	-180	-181	-183	-185	-187	-188	-188	-189	-188	-187	-187	-187	-188	-189	-191	-193	-195	-198	-202	-208	-214	-220	-224	-227	-229	-230	-231	-231	-230	-228	-225	-223	-220	-217	-215	-214	-212	-210	-209	-208	-206	-205	-204	-204	-203	-202	-202	-202	-202	-202	-202	-202	-203	-203	-203	-204	-204	-204	-204	-204	-204	-203	-203	-202	-202	-201	-201	-200	-200	-199	-199	-198	-198	-198	-197	-196	-195	-194	-193	-192	-191	-189	-186	-182	-178	-173	-168	-164	-159	-153	-147	-142	-137	-133	-130	-127	-124	-122	-119	-117	-115	-112	-110	-108	-106	-104	-103	-102	-101	-102	-103	-106	-109	-113	-118	-123	-129	-135	-142	-149	-156	-163	-169	-175	-180	-185	-189	-192	-195	-197	-199	-200	-201	-201	-201	-201	-201	-201	-200	-200	-199	-199	-199	-198
-231	-211	-197	-186	-177	-167	-156	-143	-131	-120	-109	-97	-84	-70	-56	-43	-32	-24	259	289	289	289	-10	-10	-10	-10	-10	-10	-10	-10	-10	320	320	320	412	503	503	503	648	792	792	792	746	701	701	701	533	365	365	365	419	472	472	472	442	412	-16	-15	-15	-15	-16	-17	-18	-19	-19	-20	-19	-18	-15	-11	-7	-5	-3	-2	-1	-1	-1	-1	-1	-1	457	457	579	701	-10	-10	-10	-10	564	564	510	457	457	457	564	670	670	670	663	655	655	655	541	427	427	427	221	15	-10	-10	-10	-10	-10	-10	-10	-10	-10	-10	-1	-1	-1	-1	-1	-1	-1	-1	-1	122	122	122	214	305	305	305	305	305	305	305	305	305	305	305	236	168	168	168	-18	-17	-22	-27	-33	-39	-44	-49	-54	-58	-62	-65	-68	-71	-74	-77	-80	-83	-85	-87	-90	-93	-95	-98	-101	-105	-109	-116	-124	-135	-146	-157	-168	-179	-189	-199	-208	-214	-218	-220	-218	-216	-211	-206	-200	-192	-183	-174	-163	-153	-144	-135	-125	-115	-109	-106	-106	-106	-107	-111	-115	-118	-120	-126	-133	-138	-140	-142	-144	-145	-147	-149	-151	-154	-156	-158	-158	-158	-158	-157	-157	-157	-159	-160	-162	-165	-168	-172	-178	-185	-194	-201	-208	-212	-214	-217	-218	-220	-220	-219	-218	-216	-214	-213	-212	-211	-210	-209	-208	-207	-206	-205	-205	-204	-203	-202	-202	-202	-202	-202	-203	-203	-204	-205	-206	-206	-207	-208	-209	-209	-209	-209	-209	-208	-207	-206	-205	-204	-203	-202	-201	-200	-199	-198	-197	-196	-196	-195	-195	-195	-195	-194	-192	-190	-187	-183	-179	-175	-171	-166	-160	-155	-150	-145	-142	-138	-135	-132	-129	-126	-123	-120	-117	-114	-112	-110	-108	-106	-106	-106	-106	-108	-111	-114	-118	-123	-128	-134	-141	-147	-154	-161	-168	-174	-179	-184	-188	-192	-195	-197	-199	-200	-201	-201	-201	-201	-201	-200	-200	-200	-199	-199	-199	-198
-210	-194	-183	-175	-168	-158	-144	-129	-114	-100	-86	-73	-60	457	457	457	457	457	-4	-3	-1	-1	-10	-10	-10	-10	-10	-10	-10	-10	-10	-10	-10	-10	-10	-10	701	701	838	975	975	975	899	823	823	823	762	701	701	701	655	610	-32	-31	-24	-18	-13	-10	-8	-8	-7	-7	-6	-7	305	305	228	152	152	152	229	305	-2	-2	-1	-1	-1	-1	412	579	579	579	671	762	762	762	609	457	457	457	518	579	579	579	701	823	823	823	792	762	762	762	533	305	305	305	167	30	30	30	15	0	0	-10	-10	-10	-10	-10	-10	-10	-10	-10	-10	-10	0	0	122	244	244	244	275	305	305	305	305	305	305	305	305	305	305	305	167	30	30	30	-28	-27	-34	-40	-47	-54	-60	-65	-70	-74	-77	-79	-81	-83	-86	-88	-90	-92	-93	-95	-97	-99	-102	-105	-109	-113	-119	-126	-135	-146	-157	-169	-180	-191	-202	-211	-219	-225	-228	-229	-227	-223	-218	-210	-201	-189	-175	-161	-145	-129	-117	-103	-88	-73	-67	-62	-60	-61	-63	-68	-74	-76	-81	-89	-98	-101	-106	-108	-109	-110	-112	-115	-118	-121	-124	-126	-126	-126	-125	-125	-124	-124	-124	-125	-126	-127	-129	-133	-140	-148	-158	-166	-174	-180	-184	-189	-193	-197	-200	-203	-204	-204	-205	-206	-206	-207	-207	-207	-207	-206	-206	-205	-204	-203	-202	-202	-202	-201	-202	-202	-203	-204	-205	-206	-208	-210	-211	-213	-214	-215	-215	-216	-215	-215	-214	-212	-211	-209	-207	-205	-203	-201	-199	-198	-197	-196	-195	-194	-194	-194	-195	-195	-195	-193	-191	-189	-186	-183	-179	-176	-171	-167	-162	-158	-154	-150	-147	-144	-140	-137	-134	-130	-127	-123	-120	-118	-115	-113	-112	-111	-112	-113	-115	-118	-121	-125	-130	-135	-141	-147	-154	-161	-167	-173	-179	-184	-188	-192	-195	-197	-199	-200	-200	-200	-200	-200	-200	-200	-199	-199	-199	-199	-198	-198
