-2142.4	-2142.1	-2140.7	-2139.3	-2137.8	-2137.5	-2138.3	-2141.1	-2144.9	-2149.6	-2155.5	-2161.2	-2168	-2174.7	-2180.6	-2183.3	-2183.3	-2179.4	-2170.3	-2156.2	-2135.8	-2107.3	-2076.9	-2040.4	-2000.3	-1959.4	-1917.4	-1875.4	-1834.5	-1793.5	-1751.4	-1699.2	-1647.9	-1595.7	-1539.4	-1479.2	-1414	-1345.6	-1274.4	-1208.9	-1151.5	-1098.5	-1045.6	-993.95	-944.3	-895.6	-850.11	-806.67	-765.65	-723.31	-678.67	-636.75	-598.37	-561.72	-527.61	-494.12	-462.23	-429.5	-398.5	-367.07	-337.62	-308.79	-283.52	-259.48	-241.37	-227.79	-219.29	-213.79	-211.18	-211.31	-212.91	-215.13	-215.76	-216.8	-216.13	-215.34	-213.83	-210.94	-208.94	-208.93	-210.93	-211.82	-212.56	-214.26	-216.22	-218.15	-221.59	-224.25	-226.47	-226.69	-227.94	-230.37	-231.8	-231.69	-228.4	-222.83	-216.99	-209.81	-202.73	-193.42	-182.42	-170.74	-160.58	-153.17	-147.76	-142.24	-138.32	-134.51	-131.59	-128.74	-126.44	-123.48	-121.13	-118.1	-115.44	-113.19	-110.14	-109.49	-109.38	-109.24	-109.48	-109.02	-106.12	-103.89	-96.04	-90.066	-82.532	-73.298	-64.491	-58.37	-52.952	-47.812	-43.329	-43.002	-41.566	-41.9	-43.328	-44.292	-44.544	-44.532	-42.358	-38.815	-33.895	-28.645	-20.736	-12.501	-5.5395	0.31089	6.9451	13.483	18.671	23.445	28.259	31.343	33.221	36.581	39.611	42.483	45.394	46.871	48.824	51.088	52.365	53.649	54.837	57.408	60.584	62.696	65.454	69.935	73.99	77.71	80.786	84.283	87.74	91.393	94.79	96.963	98.987	100.29	101.7	102.88	103.8	103.66	102.23	100.07	98.188	96.26	93.6	90.342	87.761	85.27	84.046	82.298	81.508	83.987	86.854	88.317	89.611	91.824	95.557	96.802	94.542	90.766	86.181	82.13	78.57	75.572	73.814	72.913	74.271	77.605	83.006	89.324	98.046	108.18	116.93	125.47	131.63	137.59	145.51	152.22	158.03	164.07	169.57	172.58	175.49	177.08	178.15	176.77	176.48	174.14	169.72	165.45	161.58	156.69	151.26	144.7	137.47	130.51	124.51	118.15	111.5	105.71	99.952	94.745	89.404	84.935	80.673	76.879	75.165	73.766	73.923	74.258	76.512	78.513	81.055	82.829	86.365	90.315	92.798	94.188	94.84	93.929	91.73	87.028	81.135	73.649	65.879	56.662	45.986	37.466	29.656	23.094	16.312	10.723	6.1734	4.3264	2.3548	0.46104	-1.7616	-6.4062	-10.866	-14.292	-18.079	-22.144	-27.601	-32.183	-36.195	-39.912	-42.372	-45.633	-49.138	-51.483	-51.149	-50.062	-47.7	-42.502	-36.532	-30.58	-23.328	-14.588	-6.9415	1.6734	9.2468	14.859	20.346	24.118	27.736	30.264	33.336	36.264	38.497	40.418	42.922	45.981	47.478	49.921	51.687	54.672	56.656	59.069	60.667	63.024	64.376	66.072	67.123	69.085	71.088	71.855	73.405	74.09	74.53	74.44	75.06	74.107	72.971	72.461	71.702	70.245	68.782	66.455	64.365	62.763	59.039	55.28	52.072	48.005	43.315	38.733	33.473	27.171	19.965	10.647	-0.16898	-11.857	-24.072	-38.065	-53.156	-67.577
-2137.8	-2139.3	-2140	-2138.8	-2138.5	-2138.3	-2138.9	-2141.6	-2145.4	-2151.2	-2158.1	-2166	-2173.8	-2180.5	-2186.3	-2188.2	-2186.1	-2179.2	-2166.2	-2147	-2120.6	-2090.1	-2051.7	-2009.2	-1964.1	-1918.1	-1873.1	-1830.1	-1789	-1748.8	-1703.6	-1658.3	-1610.1	-1560.8	-1507.6	-1451.5	-1392.3	-1329.1	-1265.5	-1204.8	-1149.2	-1098.4	-1048.4	-998.84	-947.68	-897.1	-847.02	-799.01	-753.96	-708.74	-663.73	-621.19	-583.5	-548.5	-515.5	-482.5	-450.05	-418.56	-386.07	-354.59	-324.71	-296.94	-270.17	-248.08	-229.64	-215.14	-205.98	-199.97	-196.02	-193.25	-190.98	-190.3	-190.4	-189.39	-187.64	-185.16	-181.55	-177.97	-175.62	-175.1	-175.13	-175.77	-176.37	-177.33	-179.46	-183.26	-188.97	-195.13	-199.56	-202.93	-206.63	-210.61	-215.55	-218.51	-217.95	-215.4	-210.98	-206.01	-200.46	-193.08	-183.58	-174.87	-166.44	-160.11	-154.39	-150.49	-147.92	-145.33	-143.62	-141.01	-138.65	-137.2	-135.29	-132.28	-130.32	-129	-126.89	-126.75	-126.06	-126.59	-126.91	-127.49	-126.66	-123.64	-121.16	-115.66	-109.54	-104.03	-97.484	-91.251	-85.442	-79.918	-75.989	-71.866	-72.218	-71.893	-72.162	-70.704	-71.733	-70.259	-69.56	-66.182	-61.513	-54.514	-48.096	-41.877	-34.897	-26.784	-19.591	-11.083	-3.3424	4.5863	10.696	15.005	19.356	23.982	29.227	32.684	36.574	38.971	41.195	43.249	45.807	49.098	50.51	53.215	56.199	59.816	64.516	68.459	72.434	77.719	82.996	87.659	92.226	96.224	99.108	102.67	106.16	109.69	112.19	114.07	114.91	114.48	113.55	111.26	108.32	106.07	102.03	97.623	92.464	87.75	84.337	82.866	82.041	81.733	82.836	84.477	86.508	89.024	90.683	93.225	93.82	90.133	87.897	86.5	83.893	82.173	82.457	83.509	85.684	90.08	97.793	104.23	111.54	120.7	129.55	135.82	141.18	146.51	152.29	157	161.78	166.49	169.67	172.02	174.56	176.74	178.41	178.54	178.19	177.46	176.07	173	169.36	165.36	160.63	154.43	147.06	139.76	133.45	127.66	121.16	113.88	107.27	102.28	97.122	92.579	87.904	84.609	82.031	80.936	80.618	81.529	85.264	88.583	91.379	94.314	98.991	102.91	105.71	109.32	110.16	108.75	105.71	101.38	95.77	87.108	78.002	67.878	56.613	48.474	40.841	34.043	26.258	21.309	19.621	19.046	19.237	20.765	19.175	15.152	10.658	6.1422	1.66	-4.3067	-11.511	-19.548	-27.268	-32.318	-38.077	-43.443	-48.557	-51.032	-53.618	-53.594	-50.888	-46.977	-41.839	-35.583	-27.113	-19.106	-10.884	-1.1511	6.3911	12.659	18.195	22.8	26.317	29.192	32.395	34.954	36.986	39.048	41.484	44.387	46.824	48.112	51.184	53.52	56.445	57.605	59.017	62.173	63.778	65.13	67.028	68.691	70.811	71.87	73.413	74.055	74.551	73.953	74.519	74.691	72.972	71.826	71.307	70.865	68.676	66.692	64.778	61.53	58.226	55.732	51.903	47.266	42.583	39.608	34.634	29.104	21.25	11.21	2.0963	-7.9809	-21.117	-34.228	-47.846	-60.726
-2140.3	-2144.1	-2145.7	-2145.2	-2143.6	-2141.9	-2141.5	-2143.4	-2147.4	-2153.5	-2160.3	-2167.1	-2174.8	-2180.6	-2184.4	-2184.2	-2179.2	-2168.3	-2150.2	-2126.2	-2094.8	-2056.3	-2010.8	-1962.4	-1911.1	-1860.2	-1811.5	-1766.7	-1724.9	-1685.7	-1645.2	-1604.8	-1560.6	-1514.5	-1466.4	-1414	-1358	-1300	-1239.8	-1182.1	-1129.2	-1080.4	-1030.5	-979.23	-928.13	-876.37	-824.49	-773.27	-724.1	-676.34	-631.58	-590.5	-554.33	-518.84	-485.41	-453.87	-422.5	-392.5	-362.54	-332.7	-303.62	-277.74	-252.45	-231.23	-216	-203.24	-192.48	-184.11	-176.26	-169.78	-165.84	-164.29	-161.24	-154.58	-149.43	-144.66	-139.71	-134.68	-130.57	-128.73	-127.03	-127.26	-127.51	-128.46	-131.06	-136.22	-143.47	-150.3	-156.98	-163	-168.99	-176.75	-184.82	-192.26	-195.57	-195.67	-193.75	-192.47	-189.4	-185.59	-179.34	-172.98	-166.8	-160.82	-157.23	-153.79	-151.07	-148.1	-146.52	-145.07	-143.5	-142.02	-140.4	-138.54	-136.9	-135.73	-134.63	-134.25	-134.98	-135.07	-135.78	-135.72	-134.45	-131.95	-129.59	-125.08	-120.81	-117.7	-113.64	-108.24	-103.17	-100.79	-99.495	-98.167	-97.898	-98.101	-97.92	-97.118	-97.682	-97.092	-95.192	-93.299	-88.602	-83.187	-77.911	-71.81	-63.131	-54.366	-44.488	-34.863	-25.141	-15.758	-7.9778	-0.18753	7.259	14.132	18.406	23.106	27.803	31.499	34.289	37.755	39.544	41.763	45.98	48.872	51.924	55.774	61.188	67.241	72.131	78.049	83.646	89.975	95.122	98.684	104.3	109.22	114.29	117.61	120.95	123.56	125.17	125.23	124.82	123.87	120.85	117.16	113.04	107.42	101.03	94.663	88.621	86.011	85.157	82.284	80.995	82.031	85.27	88.269	90.923	93.181	94.972	96.432	98.292	99.707	98.061	99.351	102.58	109.04	113.23	118.3	123.92	129.91	137.39	144.31	151.12	155.2	156.14	158.02	161.4	163.34	165.2	167.42	169.15	170.55	172.43	173.93	175.87	176.73	177.53	178.51	178.34	176.88	174.87	170.93	167.23	162.43	156.07	149.59	142.58	135.78	127.63	120.24	113.62	107.62	102.26	98.43	95.932	91.378	89.659	87.683	87.972	91.018	94.591	97.945	101.23	107.03	112.25	115.88	119.91	124.15	125.85	124.45	121.81	117.7	111.7	103.3	93.231	80.734	69.451	60.653	53.659	45.172	38.178	34.725	36.054	38.309	40.807	45.5	46.369	44.981	42.021	37.319	30.896	21.235	12.383	2.6659	-8.868	-19.944	-28.457	-35.064	-41.536	-46.515	-49.854	-51.924	-50.872	-47.48	-43.196	-36.285	-29.2	-21.008	-11.871	-2.391	6.2386	12.728	17.992	22.491	26.288	29.093	31.961	34.618	36.645	38.317	40.682	44.015	46.26	47.756	50.901	53.049	55.385	57.027	58.146	60.818	62.432	64.074	66.264	68.333	70.12	70.554	71.561	73.302	73.815	73.552	72.781	72.314	71.675	71.26	71.513	69.376	66.959	65.492	63.048	59.5	56.292	53.534	51.435	47.289	42.159	37.481	33.392	27.495	20.52	11.532	2.3438	-7.3125	-18.905	-30.098	-43.003	-55.943
-2150.8	-2156.5	-2158.9	-2158.3	-2156.7	-2153.4	-2150	-2149.8	-2150.4	-2154	-2158.6	-2163.3	-2169.1	-2172.8	-2173.6	-2170.5	-2160.5	-2144.5	-2120.5	-2088.5	-2049.1	-2002.8	-1950.6	-1895.3	-1839.3	-1783.5	-1730.5	-1681.5	-1636.2	-1599	-1560.8	-1525.5	-1484.3	-1441	-1396	-1347.9	-1297.8	-1244.6	-1186.7	-1133.1	-1078.3	-1027.8	-976.51	-925.75	-874.99	-822.79	-769.57	-717.7	-667.94	-621.49	-579.79	-542.29	-506.05	-472.02	-439.8	-409.68	-382.24	-355.74	-328.32	-298.88	-272.84	-246.77	-222.55	-202.57	-186.59	-172.33	-159.7	-147.98	-138.01	-131.05	-127.47	-124.12	-119.96	-113.97	-108.73	-102.89	-96.604	-90.725	-84.507	-80.54	-77.541	-75.541	-73.54	-74.486	-76.235	-80.984	-86.734	-95.499	-105.92	-116.02	-124.86	-135.67	-145.83	-156.27	-164.45	-169.46	-172.68	-174.09	-173.12	-172.99	-170.21	-166.37	-161.6	-158.15	-154.52	-151.55	-148.34	-145.8	-144.36	-143.46	-142.33	-141.26	-138.91	-137.58	-136.45	-135.7	-134.87	-134.7	-135.68	-136.86	-136.76	-136.77	-135.57	-134.32	-130.88	-126.89	-123.64	-121.05	-118.61	-114.41	-111.47	-109.14	-109.27	-109.49	-111.1	-111.24	-111.53	-111.4	-111.64	-110.5	-109.68	-108.3	-106.7	-103.93	-98.929	-92.532	-85.719	-76.332	-66.053	-55.212	-44.399	-32.771	-21.981	-12.88	-4.8799	2.0796	9.4366	14.177	18.87	22.425	26.354	29.768	31.925	35.896	39.368	42.609	47.595	52.627	57.625	64.867	71.891	77.968	83.937	89.903	96.567	102.39	107.94	114.03	118.52	124.53	128.38	132.41	134.02	135.51	135.49	135.61	133.57	130	125.15	119.08	111.71	104.3	98.135	93.022	88.374	85.198	83.521	83.255	83.832	86.397	89.879	93.661	95.846	99.077	103.6	105.85	107.15	110.25	115.86	122.26	128.66	135.08	140.37	147.08	154.05	160.56	164.75	166.8	167.2	166.67	166.07	166.86	166.96	167.33	167.76	169.37	169.85	170.11	170.65	172.17	174.32	175.76	176.4	177.11	175.28	174.54	171.11	167.45	161.85	156.01	149.53	141.39	132.63	125.34	118.78	113.72	108.45	104.29	100.81	97.807	96.582	95.934	97.117	100.23	103.09	107.81	112.46	119.02	124.7	130.45	134.49	138.63	140.04	139.77	138.61	134.92	127.65	118.25	107.71	96.578	83.436	74.189	67.516	60.988	55.648	55.662	58.661	62.021	65.289	70.683	73.09	71.828	69.386	63.656	54.838	43.103	32.644	22.645	10.937	-0.21157	-11.784	-20.484	-28.161	-33.26	-37.52	-41.557	-41.426	-39.144	-35.748	-30.316	-23.412	-15.72	-7.2326	1.8358	10.371	16.51	20.958	24.869	27.162	29.63	32.606	35.136	36.838	38.8	41.371	44.567	45.888	48.475	50.411	51.944	54.548	56.066	58.517	60.07	61.28	63.649	65.007	67.122	68.521	69.721	69.808	70.799	72.11	71.742	70.283	69.895	69.816	69.534	69.222	67.5	65.104	62.721	59.78	56.991	54.695	51.932	48.745	43.73	39.944	35.938	31.431	25.139	17.276	9.9774	1.57	-7.7349	-17.075	-28.806	-40.403	-50.692
-2163.2	-2171	-2174.6	-2176.1	-2174.7	-2171.3	-2166.8	-2162.4	-2159.9	-2159.7	-2159.5	-2160.3	-2161.1	-2159.7	-2154.4	-2145	-2129.9	-2105.9	-2073.9	-2033	-1983.8	-1928.5	-1869.3	-1807.1	-1743	-1681.8	-1623.3	-1568.6	-1519	-1477.7	-1442.5	-1404.8	-1365	-1325.2	-1283.3	-1241.1	-1197.1	-1151.8	-1101.3	-1046.7	-992.03	-941.13	-891.36	-842.3	-793.08	-742.98	-691.82	-640.33	-591.87	-551.51	-515.53	-481.54	-446.33	-411.1	-380.57	-353.27	-327.39	-302.96	-276.7	-250.59	-224.09	-200.91	-180.13	-161.91	-146.4	-131.96	-119.88	-108.91	-100.93	-95.223	-91.506	-87.164	-82.287	-76.662	-70.714	-63.28	-55.142	-46.17	-38.749	-31.542	-25.677	-21.174	-17.724	-15.825	-16.5	-20.5	-26.684	-35.149	-45.494	-56.525	-69.558	-83.59	-97.51	-111.46	-124.46	-135.86	-143.98	-150.64	-154.65	-157.87	-158.85	-156.59	-154.72	-151.19	-148.4	-145.51	-142.37	-141.02	-139.17	-138.75	-137.54	-134.93	-134.7	-134.22	-133.49	-131.7	-132.44	-132.72	-133.88	-134.53	-134.48	-134.76	-134.72	-132.89	-130.66	-125.85	-122.48	-118.93	-115.82	-111.8	-109.52	-107.4	-106.62	-108.77	-111.31	-113.02	-113.91	-114.46	-114.53	-113.66	-113.86	-113.56	-111.51	-109.98	-105.67	-101.23	-94.474	-86.732	-77.292	-65.637	-54.926	-43.838	-32.691	-22.803	-13.643	-6.0842	-0.29046	4.3114	8.6775	13.329	17.085	21.075	24.144	27.319	31.403	36.069	42.169	47.41	53.345	60.016	68.155	76.649	83.284	89.952	96.728	103.94	110.01	116.51	122.35	128.98	134.92	138.31	141.61	143.09	144.84	145.71	144.54	141.24	136.74	129.78	122.76	115.17	107.53	99.934	93.114	88.054	85.705	84.261	83.509	83.66	87.614	91.041	95.046	97.21	99.333	103.37	107.93	112.67	117.08	124.08	131.39	138.86	146.14	152.72	158.42	163.78	167.93	170.04	169.55	168.54	169.18	167.62	166.52	166.59	165.88	164.45	164.88	165.14	165.42	166.07	168.85	170.94	173.44	174.43	175	174.27	172.78	170.65	165.79	160.59	154.23	145.75	137.92	130.5	124.27	119.07	114.72	110.83	106.4	104.09	103.97	103.6	105.67	107.86	111.91	116.39	122.34	127.91	133.43	139.59	145.13	148.04	147.23	146.81	146.13	142.8	137.09	129.27	120.93	109.68	100.02	96.401	90.325	85.183	82.166	82.439	83.703	84.407	87.264	89.56	90.592	89.674	84.677	77.695	67.916	58.119	47.203	38.758	29.682	20.139	9.4313	2.1704	-5.7516	-10.56	-14.034	-17.09	-18.209	-16.625	-13.699	-9.0448	-5.1977	-0.74913	4.9654	12.947	18.139	22.968	26.487	28.588	30.813	32.721	34.549	36.489	38.435	40.391	41.971	45.336	46.581	48.77	50.71	52.533	55.022	56.606	58.003	60.184	61.395	62.948	63.839	65.988	67.273	67.672	67.885	69.371	69.599	68.88	68.078	68.143	67.878	66.602	66.027	63.871	61.504	59.272	56.649	53.201	51.143	48.531	44.66	40.912	36.2	32.033	27.323	21.467	15.272	7.1087	-0.73637	-8.763	-18.083	-27.679	-37.338	-48.427
-2172.9	-2181.6	-2187.2	-2190.8	-2191.3	-2188.9	-2183.5	-2178.3	-2172.1	-2166.8	-2161.6	-2155.2	-2147.8	-2136.4	-2122	-2102.5	-2077.5	-2044.5	-2001.3	-1950.1	-1892.9	-1828.7	-1762.5	-1694.5	-1626.5	-1559.1	-1496.7	-1438.5	-1384.3	-1336.2	-1292.4	-1252.5	-1211.5	-1173.5	-1135.3	-1098	-1059.4	-1020.1	-976.65	-929.52	-879.75	-830.8	-782.35	-734.98	-689.77	-644.08	-597.2	-553.44	-511.28	-475.06	-438.85	-403.63	-368.68	-336.14	-304.5	-277.5	-252.54	-229.32	-206.73	-186.69	-168.71	-150.69	-134.48	-120.28	-107.09	-95.823	-85.807	-76.891	-69.375	-62.5	-57.454	-52.603	-46.457	-40.355	-33.165	-24.037	-13.854	-4.5525	4.502	13.163	21.905	29.69	34.343	37.992	39.5	37.016	31.301	23.902	12.655	-1.2603	-15.793	-32.5	-50.5	-68.588	-86.976	-104.05	-117.83	-129.62	-137.51	-142.45	-145.45	-146.54	-145.79	-144.21	-142.42	-139.41	-137.41	-134.48	-133.05	-132.06	-131	-129.94	-129.19	-127.5	-126.97	-126.06	-125.89	-126.52	-125.85	-126.17	-126.17	-127.4	-128.14	-126.89	-122.23	-117.84	-113	-106.88	-101.65	-98.861	-95.109	-92.252	-93.284	-96.316	-102.15	-105.79	-109.18	-110.93	-111.96	-114.35	-114.95	-113.86	-112.76	-110.83	-108.67	-101.85	-95.577	-87.873	-79.031	-70.437	-59.997	-46.456	-35.644	-27.936	-19.993	-14.148	-7.1903	-3.6025	0.21875	5.0884	9.3203	12.257	16.008	19.744	24.071	28.887	35.762	42.84	48.301	55.841	63.877	73.396	82.643	90.125	96.932	104.28	110.76	117.95	124.11	130.77	135.8	141.21	144.27	147.88	150.7	152.05	152.09	150.77	146.15	140.02	133.01	124.08	115.43	106.95	98.494	92.183	87.287	84.964	83.462	84.219	85.351	87.694	91.209	94.525	97.547	101.29	106.2	112.15	118.14	125.43	132.44	140.62	147.63	153.99	159.17	163.27	167.42	169.02	169.52	168.11	166.81	165.01	164.18	162.92	161.09	159.35	159.2	159.65	159.35	160.97	161.97	164.5	167.12	168.75	171.76	171.84	172.1	169.93	167.31	163.35	157.63	151.7	144.03	137.04	131.14	126.25	122.6	118.06	114.92	112.33	111.17	111.71	114.19	116.71	120.54	126.73	132.28	137.37	144.63	150.85	156.55	159.28	160.18	158.12	154.65	151.72	148.81	143.21	136.99	129.08	122.23	119.29	118.64	115.58	111.55	109.07	107.69	104.69	103.28	103.45	101.04	97.163	90.639	84.465	76.213	68.044	61.867	54.733	47.88	39.463	33.493	27.025	22.791	19.627	17.26	15.129	13.449	14.813	15.525	16.649	18.977	20.867	22.888	26.172	28.803	31.539	33.749	34.747	35.97	37.733	38.815	41.007	41.602	43.269	44.671	46.87	49.414	51.176	52.59	54.18	55.991	57.768	59.626	60.51	61.846	63.115	64.045	64.931	66.302	66.727	67.237	67.247	66.979	66.638	66.171	65.464	64.9	63.9	62.476	59.727	57.338	54.692	51.659	48.996	47.389	43.408	39.019	34.897	31.343	27.476	22.726	16.439	9.6406	3.2367	-4.1599	-12.067	-20.637	-29.101	-37.321	-46.987
-2179.1	-2188.9	-2194.5	-2199.2	-2200.7	-2198.2	-2194.5	-2188.3	-2181	-2170.9	-2158.7	-2143.3	-2124.9	-2101.4	-2073.2	-2039.3	-1998.1	-1948.9	-1893.6	-1832	-1765.5	-1695.5	-1624.5	-1554.5	-1485.5	-1420.4	-1358.1	-1299	-1242	-1189	-1139.1	-1093.1	-1053.1	-1015.1	-978.08	-942.77	-908.46	-873.62	-836.98	-796.92	-752.35	-703.67	-657.5	-614.49	-574.58	-533.82	-492.84	-453.62	-415.37	-382.15	-350.95	-318.19	-286.44	-254.66	-225.9	-202.84	-180.63	-165.56	-150.59	-136.61	-123.63	-110.58	-97.19	-85.831	-75.041	-65.963	-55.5	-45.5	-37.5	-30.5	-24.738	-19.772	-13.581	-7.3899	0.79918	9.9876	19.002	28.584	37.555	47.019	55.669	64.325	69.811	63.09	63.026	62.608	71.216	64.723	55.529	44.397	28.371	10.123	-10.124	-31.371	-53.408	-75.192	-93.975	-108.76	-120.57	-128.82	-134.07	-137.32	-137.46	-137.45	-135.44	-134.43	-131.43	-129.43	-127.32	-126.24	-125.28	-124.35	-122.23	-119.78	-118.95	-116.73	-114.58	-112.83	-111.4	-110.85	-110.59	-111.42	-111.81	-110.21	-105.8	-100.86	-94.825	-88.884	-84.189	-79.482	-75.514	-73.673	-74.821	-77.449	-82.042	-89.407	-94.471	-97.935	-100.94	-103.39	-104.12	-102.82	-102.13	-98.954	-95.393	-90.995	-83.636	-74.997	-68.906	-61.692	-51.949	-41.263	-34.632	-27.278	-23.015	-16.306	-11.545	-7.9161	-4.8064	-0.75991	3.1453	5.9708	9.1734	12.91	17.197	23.268	30.667	36.828	43.054	51.011	60.838	69.505	79.33	89.48	96.91	102.83	110.15	117.05	123.8	128.58	134.03	139.04	143.56	147.33	150.72	151.61	143.89	155.15	150.35	145.27	137.98	130.49	122.19	112.87	103.53	94.329	88.56	84.773	83.687	84.016	84.544	84.781	87.838	92.2	96.238	100.05	104.78	110.25	116.73	123.88	132.1	138.29	144.86	151.56	156.85	161.04	164.18	165.39	166.68	165.56	164.02	161.35	159.29	157.98	155.45	155.02	153.64	153.28	153.19	153.89	156.08	158.24	161.45	164.42	168	170.38	171.1	171.18	169.25	167.01	162.85	157.53	150.61	145.57	139.79	135.08	131.27	126.99	124.3	122.16	122.11	121.54	122	126.27	130.65	137.06	141.73	147.36	152.77	160.43	165.79	167.97	167.71	169.4	166.84	167.44	164.73	163.73	156.68	151.37	147.03	145.13	138.55	135.02	129.41	124.41	118.38	114.41	112.67	110.38	106.83	100.85	95.459	89.766	84.428	79.162	73.387	69.09	64.575	59.254	55.084	51.713	50.333	47.957	46.145	44.501	42.978	41.515	41.074	41.815	41.584	40.912	40.375	40.506	41.698	42.298	42.035	42.897	43.428	44.769	45.45	46.326	47.336	48.489	49.4	51.23	53.31	54.96	56.084	57.718	59.187	60.376	60.305	61.325	62.081	63.25	64.279	64.648	65.021	65.686	65.384	64.688	64.501	64.218	63.269	62.334	61.967	60.212	57.513	55.948	53.017	49.656	46.409	43.69	40.577	37.828	33.78	28.887	24.096	20.177	15.575	10.492	5.0487	-1.5777	-9.5208	-16.144	-23.082	-31.095	-39.464	-48.196
-2179.9	-2187.6	-2193.1	-2195.5	-2196.8	-2194.3	-2188.8	-2182.6	-2172.4	-2159.1	-2138.9	-2113.8	-2081.8	-2043.8	-1997.8	-1945.8	-1884.4	-1816.8	-1745.1	-1672.6	-1598.2	-1526.2	-1455.2	-1388.4	-1324.4	-1265.4	-1210.4	-1156.4	-1104.2	-1052	-1002.8	-957.59	-916.25	-877.81	-841.46	-807.52	-773.97	-739.98	-703.2	-663.65	-618.5	-570.9	-525.17	-484.18	-445.35	-409.26	-372.28	-337.85	-304.44	-278.64	-256.1	-232.39	-205.47	-181.37	-158.39	-141.41	-128.43	-121.45	-111.33	-100.11	-88.893	-78.925	-68.265	-59.374	-48.054	-37.408	-24.922	-14.834	-6.1725	0.34736	6.2052	11.194	16.383	22.573	29.601	36.334	50.138	51.378	59.016	680.43	680.84	681.23	61.301	61.448	61.373	61.087	61.149	61.86	62.405	64.429	50.584	33.5	13.5	-7.4996	-30.5	-53.187	-74.723	-91.738	-106.2	-117.48	-124.46	-129.46	-132.46	-133.58	-133.45	-132.3	-130.04	-127.92	-125.92	-124.16	-122.33	-119.44	-115.68	-110.81	-106.27	-101.41	-97.205	-92.59	-88.579	-86.323	-85.188	-83.915	-82.247	-80.569	-76.706	-71.888	-66.417	-61.522	-56.901	-52.095	-49.568	-49.911	-51.595	-55.133	-62.405	-70.723	-77.273	-81.597	-85.769	-88.515	-89.434	-88.974	-86.653	-83.023	-77.77	-73.952	-68.784	-62.457	-55.405	-49.259	-42.46	-36.047	-29.873	-24.262	-20.107	-16.131	-12.125	-8.6142	-4.6632	-2.3353	-0.33596	3.6342	5.2933	8.6275	14.051	20.276	26.882	32.098	40.445	48.84	58.702	66.974	76.954	86.422	94.184	102.23	108.53	114.75	120.36	126.71	131.31	135.65	139.98	143.75	146.49	147.54	150.08	148.98	145.5	141.31	134.6	126.5	118.27	110.59	101.76	93.489	87.488	83.48	82.341	81.292	81.869	84.014	85.698	89.363	94.381	98.387	102.6	108.95	114.72	121.62	128.67	136.27	143.05	148.5	153.83	158.08	160.25	161.57	162.49	161.42	159.4	156.63	154.36	152.03	149.89	147.14	146.88	146.39	146.08	146.49	149.71	152.02	156.33	159.97	163.76	166.51	170.27	171.88	170.4	169.33	166.08	162.86	158.03	153.14	148.78	144.29	140.88	138.42	136.07	132.87	131.42	131.92	134.02	136.63	141.59	148.64	155.24	162.19	168.42	175.3	179.79	184.67	188.67	186.7	184.68	183.64	181.22	176.5	169.12	163.96	156.78	152.44	146.42	140	133.32	128.45	123.89	118.74	115.35	112.9	108.75	103.52	99.212	94.861	89.995	84.945	82.375	80.219	76.819	73.536	72.186	70.501	69.65	67.772	67.723	65.867	64.594	62.788	61.921	60.525	59.839	58.952	56.896	55.212	55.032	54.628	53.101	53.236	52.722	52.866	53.537	53.993	54.719	55.53	55.729	57.689	58.592	59.85	60.635	60.884	62.061	62.752	63.36	63.297	62.919	64.107	64.999	64.458	65.117	65.045	64.204	63.742	62.28	61.263	60.036	59.004	57.909	56.147	53.858	50.431	47.429	45.238	41.769	38.067	34.762	31.019	27.363	22.655	18.228	13.068	8.3319	3.3293	-1.6582	-8.1757	-14.811	-21.432	-27.627	-35.158	-42.41	-48.518
-2170.1	-2175.9	-2177.6	-2178.1	-2175.7	-2170.2	-2163	-2153.8	-2140.7	-2120.7	-2091.6	-2052.5	-2005.5	-1949.5	-1886.5	-1814.5	-1735.3	-1649.9	-1563.4	-1481	-1403.8	-1333.8	-1266.8	-1206.8	-1150.5	-1101.1	-1055.7	-1012.3	-967.9	-921.68	-877.39	-834.17	-792.96	-754.74	-717.94	-683.17	-647.78	-609.4	-573.4	-528.69	-483.06	-435.02	-390.81	-351.02	-316.17	-281.87	-252.65	-223.68	-204.06	-187.65	-173.72	-158.3	-142.32	-124.3	-109.23	-96.018	-86.805	-80.591	-72.461	-63.8	-54.443	-44.465	-35.487	-27.407	-19.241	-8.7706	2.6111	11.672	20.331	27.151	31.933	37.025	42.349	46.245	50.221	54.257	678.19	678.47	678.87	679.28	679.67	680	374.92	69.41	69.536	60.102	60.576	60.68	60.854	66.447	55.3	40.5	23.309	5.1382	-15.195	-35.551	-56.081	-74.788	-89.836	-102.62	-112.61	-120.86	-125.94	-128.62	-129.98	-129.93	-129.09	-127.34	-124.58	-121.82	-118.01	-113.24	-108.08	-100.84	-92.018	-84.665	-76.9	-69.878	-64.451	-59.266	-55.881	-52.068	-50.758	-49.855	-47.992	-43.911	-41.002	-38.098	-35.674	-34.079	-33.149	-34.557	-36.488	-41.847	-48.863	-55.576	-61.536	-66.403	-69.084	-71.515	-72.857	-71.05	-69.387	-65.235	-62.399	-57.97	-53.753	-48.783	-42.064	-36.301	-33.016	-28.015	-23.163	-18.599	-14.758	-12.456	-9.0088	-5.4696	-3.1018	-0.94592	2.486	4.8687	8.0661	12.666	17.715	23.111	27.209	34.587	41.98	49.525	58.046	66.339	75.12	83.209	90.744	98.762	105.04	109.93	115.95	120.6	126.34	130.46	133.28	135.26	138.63	142.42	141.78	140.09	136.55	131.27	125.69	119.34	110.87	102.54	95.337	89.222	83.137	79.222	77.729	78.131	79.402	79.004	82.087	85.786	89.864	94.268	100.24	104.95	111.22	118.39	125.11	132.28	137.55	143.86	149	151.93	154.85	155.9	155.9	155.38	152.13	151.18	147.19	144.34	141.24	139.39	137.59	136.9	139.05	140.19	142.28	146.1	151.31	155.75	161.05	164.97	167.61	169.57	170.89	171.85	169.21	165.78	163.19	159.99	156.76	151.62	149.45	145.35	144.4	142.69	141.08	139.29	142.62	147.8	152.02	156.99	163.69	170.9	175.36	180.72	184.32	187.23	187.47	186.65	184.21	180.63	176.21	172.18	167.06	161.52	155.66	152.06	144.76	140.11	134.38	128.49	122.26	118.19	117.01	113.75	109.15	104	100.57	96.352	92.539	90.077	88.319	87.051	86.107	84.847	83.527	82.313	82.014	81.963	82.532	81.73	80.253	78.84	77.321	76.685	75.782	73.898	72.432	70.18	68.919	66.83	66.475	66.065	65.298	63.873	63.522	63.801	63.517	64.918	64.558	64.941	66.278	66.885	67.391	66.718	66.525	66.955	66.622	67.038	65.704	64.702	64.692	65.48	64.666	63.205	62.565	61.304	59.791	59.04	57.534	55.315	53.541	52.094	49.391	46.549	43.529	39.454	35.75	33.005	29.385	25.007	20.022	15.608	11.045	6.0464	0.79992	-4.6007	-9.8875	-15.275	-20.595	-26.892	-32.586	-39.595	-45.984	-52.093
-2152.9	-2152.6	-2149.5	-2143.2	-2134	-2122.8	-2109.5	-2093.3	-2072.1	-2041.7	-1999.2	-1945.9	-1883.9	-1813.9	-1734.9	-1647.8	-1554.5	-1457.2	-1361	-1276.8	-1201.7	-1135.4	-1076	-1023.5	-977.1	-936.67	-900.5	-869.5	-833.5	-795.5	-755.44	-715.22	-675.36	-637.59	-601.81	-565.79	-530.7	-491.94	-443.5	-398.5	-352.31	-308.42	-266.64	-230.87	-199.05	-170.95	-149.09	-139.32	-128.5	-119.32	-112.2	-104.22	-93.034	-80.61	-68.321	-58.262	-49.283	-42.887	-34.219	-26.347	-18.368	-10.62	-3.0875	2.7657	10.328	18.52	26.921	33.919	41.462	47.257	52.485	56.882	372.44	372.72	562.86	753.62	753.39	753.31	753.72	754.11	754.32	754.27	411.13	68.444	68.976	58.916	58.896	59.27	60.073	65.676	56.267	44.763	30.973	16.206	-0.74861	-20.178	-38.404	-56.192	-70.98	-86.182	-98.426	-108.13	-114.41	-120.16	-124.41	-126.65	-126.86	-126.1	-123.35	-118.45	-113.4	-107.16	-99.297	-91.528	-80.491	-70.357	-60.683	-53.33	-45.829	-38.956	-32.974	-28.651	-26.787	-25.784	-23.646	-20.6	-19.33	-19.699	-19.611	-18.621	-19.055	-21.23	-25.784	-31.067	-36.879	-41.844	-47.058	-51.472	-55.052	-57.558	-57.946	-56.137	-53.499	-51.855	-47.471	-45.208	-39.473	-35.616	-30.673	-25.742	-21.88	-17.814	-14.243	-11.39	-8.0815	-5.4494	-2.3877	-0.62952	0.85397	4.0749	7.0778	9.5739	12.117	17.298	21.977	25.551	30.737	36.085	43.434	51.109	58.302	65.696	72.645	78.877	85.792	93.111	99.812	105.23	109.71	112.66	117.1	122.11	125.06	125.74	127.13	129.35	129.08	126.43	121.69	117.51	112.49	106.15	98.633	91.971	84.945	79.967	76.265	72.727	71.369	70.592	71.725	73.083	74.9	78.46	83.704	87.891	92.968	99.005	104.95	111.69	118.52	125.81	131	135.17	140.48	144.12	145.79	146.68	146.94	146.6	144.95	141.67	138.78	134.21	131.46	129.65	128.25	127.65	128.44	131.72	134.77	138.26	143.04	149.27	154.29	160.14	163.44	166.02	167.08	168.51	170.03	168.79	165.36	162.73	161.31	158.01	154.38	150.66	149.72	146.67	147.6	147.67	148.49	150.1	156.4	164.32	168.29	170.5	174.68	178.59	182.32	183.27	182.27	178.18	175.37	172.85	169.01	163.12	158.43	155.3	151.13	144.78	138.58	134.44	129.24	125.68	120.62	116.53	112.6	110.39	107.03	102.1	98.045	96.688	93.255	92.363	91.133	91.771	91.407	91.101	91.728	91.954	92.159	93.095	94.239	94.502	93.628	92.297	91.447	90.547	90.148	89.131	87.679	84.979	82.856	81.907	80.512	78.81	78.422	76.864	76.745	75.673	75.11	74.419	74.3	75.153	75.651	74.696	74.64	74.013	73.266	71.97	71.621	70.699	69.973	68.375	66.969	65.147	63.937	62.68	61.068	60.42	58.257	56.43	54.091	52.185	50.301	47.162	45.524	43.112	39.889	35.865	31.614	26.76	23.692	19.467	15.072	10.208	5.073	-0.020323	-5.2754	-10.593	-16.133	-21.476	-27.243	-32.488	-37.752	-43.074	-50.458	-56.369
-2126.9	-2118.7	-2106.5	-2092.3	-2073	-2052.8	-2024.6	-1994.4	-1957.1	-1910.9	-1854.8	-1788.6	-1711.1	-1629.7	-1538.3	-1445.9	-1349.5	-1256.5	-1166.5	-1086.5	-1017.5	-958.32	-907.89	-863.46	-826.04	-791.93	-759.95	-729.98	-700	-667.97	-632.78	-596	-558.23	-521.46	-487.47	-454.03	-420.59	-385.5	-345.59	-306.81	-270.04	-235.27	-203.5	-175.5	-151.5	-130.5	-114.5	-103.5	-93.696	-85.103	-77.051	-68.693	-57.501	-46.309	-34.449	-24.997	-16.474	-8.5433	-1.3532	5.6588	11.345	17.111	22.879	27.647	33.08	39.49	45.38	49.914	55.547	94.945	385.34	676.17	677	677.29	753.05	828.4	827.98	828.28	828.91	829.23	829.21	829.19	448.15	67.3	57.481	57.671	57.849	58.077	58.437	65.826	58.876	50.515	39.69	26.305	12.286	-3.315	-19.769	-35.468	-51.712	-65.873	-78.214	-87.553	-96.686	-103.93	-109.18	-113.42	-114.46	-114.45	-112.45	-108.52	-103.64	-97.836	-90.066	-81.893	-71.677	-61.729	-53.2	-45.567	-37.571	-30.444	-24.725	-20.753	-18.921	-16.396	-12.578	-9.6725	-9.3071	-8.5038	-8.229	-7.7118	-7.8822	-10.3	-13.243	-17.201	-21.288	-26.016	-29.99	-33.182	-37.502	-40.919	-40.999	-39.886	-37.757	-35.997	-35.784	-30.887	-25.839	-22.021	-17.906	-14.961	-10.452	-6.7472	-4.2515	-2.4293	0.023243	1.9343	5.3373	5.9363	7.3828	9.9828	13.145	15.673	19.421	21.721	25.614	28.934	34.065	39.115	43.895	50.571	57.647	63.858	69.509	74.828	81.158	87.05	93.249	98.291	101.34	103.52	108.11	111.26	113.47	114.17	113.81	113.97	113	110.43	106.94	102.48	95.802	90.734	84.959	78.647	73.608	67.901	65.061	63.181	61.215	60.331	61.168	63.829	66.065	69.675	74.131	79.852	83.962	89.59	96.493	103.69	109.63	114.58	119.85	125.38	128.48	131.58	135.39	136.4	136.13	135.11	134.19	129.78	126.02	122.59	120.96	117.32	117.11	118.57	118.83	119.28	123.66	130.17	134.72	138.97	144.41	150.58	154.14	158.96	160.24	161.99	162.22	163.95	165.91	162.04	157.92	156.69	155.34	152.71	149.41	148.88	147.26	147.44	150.59	152.3	155.12	159.38	164.41	167.53	168.72	169.73	172.83	172.14	171.14	166.38	163.63	158.7	156.53	154.43	149.69	144.96	140.52	137.21	132.31	126.39	123.14	119.12	113.96	110.88	108.4	104.8	100.19	97.948	95.285	93.263	91.82	92.307	92.466	94.362	95.302	96.392	97.272	97.697	101.06	102.93	103.63	103.09	104.28	104.02	104.75	103.76	103.58	102.01	101.04	100.18	97.677	95.586	94.583	92.967	91.574	90.164	89.526	87.998	86.171	86.856	85.648	84.753	84.75	84.118	82.533	81.704	79.973	78.439	76.85	76.282	74.718	72.178	69.219	67.508	64.538	62.757	61.724	60.42	57.767	55.379	52.756	50.203	47.687	44.413	41.684	39.677	36.32	32.563	28.286	23.575	18.727	14.126	10.029	5.0442	0.050952	-4.7617	-10.68	-16.437	-21.546	-26.749	-32.822	-38.085	-43.15	-48.45	-54.602	-59.719
-2084.9	-2066.7	-2042.4	-2012.2	-1980.1	-1942.9	-1897.6	-1847.4	-1792.2	-1730	-1660.7	-1585.5	-1503.2	-1415.8	-1323.4	-1233.9	-1144.6	-1059.6	-979.58	-908.58	-846.59	-794.5	-752.5	-715.5	-683.5	-653.47	-624.25	-596.02	-569.79	-542.57	-512.55	-479.5	-445.5	-412.1	-380.76	-351.77	-324	-295.22	-264.45	-236.5	-211.5	-189.5	-168.5	-150.58	-134.6	-119.5	-104.59	-93.025	-81.686	-69.949	-56.896	-43.703	-30.579	-18.921	-8.692	0.059361	8.3107	15.731	22.784	28.748	33.515	38.283	42.187	46.256	50.673	54.357	58.122	61.884	93.656	94.04	384.89	675.6	675.88	675.39	750.68	826.75	827.3	827.92	828.35	828.31	828.29	828.26	447.24	66.256	66.435	66.614	56.596	56.568	57.107	57.988	64.487	56.639	47.84	37.745	26.055	12.306	-1.0272	-16.286	-30.056	-43.623	-55.323	-66.542	-75.453	-83.499	-89.5	-94.118	-95.847	-96.457	-95.669	-94.156	-90.401	-85.557	-78.295	-71.075	-63.88	-56.328	-49.425	-42.183	-35.157	-29.553	-25.198	-20.866	-17.751	-13.909	-9.4424	-6.5589	-4.3465	-2.3798	-1.3416	0.13389	0.78404	0.33829	-1.9031	-3.8954	-6.3599	-8.9991	-11.608	-15.608	-19.619	-20.894	-21.833	-20.78	-19.43	-18.519	-17.885	-15.33	-11.166	-7.0915	-3.0698	-0.39102	1.5215	5.6204	7.094	9.5826	10.288	11.987	13.146	15.315	16.135	17.379	19.622	22.182	25.628	27.691	28.648	31.788	36.438	41.297	46.634	51.141	56.946	61.767	67.002	71.38	75.445	81.642	86.262	91.43	91.945	94.885	97.729	98.974	98.96	98.712	98.427	97.683	95.22	91.797	88.842	84.879	79.178	73.349	68.112	62.692	58.709	54.861	51.538	48.163	47.114	48.721	49.449	50.566	53.532	59.137	63.105	66.991	71.852	77.7	84.608	91.108	96.734	101.12	104.62	110.56	115.3	117.56	118.43	119.86	121.63	121.11	117.51	114.51	112.2	108.88	106.45	104.46	104.1	102.76	105.27	108.01	110.21	113.75	120.22	127.02	131.91	134.88	140.04	144.41	147.82	150.65	154.92	154.5	154.46	155.27	155.59	151.83	147.78	147.67	145.9	144.46	142.02	143.03	142.94	146.35	150.15	152.41	152.99	155.6	159.51	161.69	159.77	158.36	156.54	152.14	150.83	146.01	142.98	139.22	137.34	135.42	129.8	124.35	120.64	117.93	115.32	110.19	105.88	102.35	98.976	97.67	94.573	91.872	89.334	88.71	88.998	90.192	90.874	94.561	96.205	99.355	100.65	103.65	106.38	109.84	111.84	113.22	114.76	114.83	115.74	116.15	116.66	114.99	113.73	112.09	110.63	109.82	108.08	106.18	104.34	103.14	102.43	99.773	98.291	97.12	96.152	95.516	93.968	92.399	90.814	89.673	87.414	85.086	83.463	81.552	78.136	75.58	72.843	69.281	66.57	64.095	62.167	59.825	56.984	53.865	51.729	48.713	45.813	41.958	38.408	35.257	33.218	29.449	25.191	20.676	16.073	11.211	5.4858	-0.093152	-5.5834	-10.258	-15.779	-20.942	-25.636	-31.837	-37.688	-42.693	-47.706	-51.943	-57.437	-63.174
-2014.3	-1983.9	-1945.5	-1903.2	-1854	-1798.8	-1737.7	-1671.5	-1600	-1524.6	-1446.2	-1366.8	-1283.4	-1199.4	-1116.4	-1035.5	-957.49	-883.34	-814.13	-751.92	-695.71	-648.5	-609.29	-577.08	-545.87	-516.66	-490.63	-465.85	-444.03	-422.82	-399.63	-372.64	-342.66	-316.67	-290.68	-267.62	-244.5	-222.5	-200.5	-181.53	-166.76	-155.99	-146.09	-136.88	-125.67	-114.31	-101.97	-89.342	-75.5	-59.5	-42.42	-25.295	-10.959	1.5826	12.5	21.709	29.9	35.879	41.857	46.816	50.348	54.306	57.635	60.753	62.73	53.53	53.302	53.135	53.336	53.616	53.929	53.454	53.249	53.431	53.624	54.02	54.415	54.8	55.189	827.4	827.36	826.87	445.75	65.312	65.732	65.885	66.094	56.163	56.148	56.491	56.879	62.071	54.846	46.478	36.887	26.728	15.766	3.7991	-9.6147	-22.732	-33.783	-43.615	-52.015	-59.669	-66.589	-71.894	-74.311	-76.057	-76.601	-76.917	-74.926	-70.72	-66.531	-61.256	-55.439	-50.438	-45.246	-39.953	-35.372	-30.999	-27.653	-24.304	-20.708	-15.921	-11.591	-8.5009	-3.7346	0.078799	3.3731	6.0694	9.0406	9.7292	9.2815	8.6921	7.5139	5.8533	4.8825	1.5301	-1.7534	-2.9696	-2.5223	-2.5775	-1.3452	-1.371	-0.66244	1.8685	3.7531	7.9238	11.152	14.61	15.368	17.129	20.844	22.197	22.28	22.339	22.506	25.567	26.642	26.329	27.021	29.886	31.632	33.604	34.935	36.145	38.57	43.263	48.406	52.275	55.603	60.164	64.885	68.933	72.049	75.305	79.516	82.182	83.021	84.765	85.543	85.749	83.925	82.273	81.895	79.539	76.646	73.408	69.504	64.882	59.922	55.004	49.804	43.003	40.343	38.399	34.249	31.21	31.096	32.564	35.075	36.228	38.962	42.437	47.04	51.831	55.921	60.385	67.439	72.835	79.122	82.031	87.092	90.885	95.525	97.847	99.696	99.518	99.907	100.07	99.359	96.643	93.253	92.175	89.603	88.882	87.177	88.171	89.522	91.577	94.876	98.365	102.42	107.43	113.68	118.01	120.98	124.28	131.4	133.48	138.04	138.93	140.78	139.59	140.64	141.21	137.41	134.86	132.95	133.98	133.12	132	131.66	135.1	136.35	141.02	143.59	144.26	144.89	146.53	147.88	146.06	140.96	136.67	133.91	131.48	130.17	126.33	122.6	118.19	116.46	114.78	108.36	103.46	101.5	98.906	95.771	91.252	88.494	85.933	84.322	83.768	83.577	81.935	82.564	85.538	88.843	91.964	94.844	98.748	101.36	105.98	111.08	114.62	116.07	119.19	123.11	124.79	125.26	125.88	126.46	125.99	125.97	123.65	122.73	119.81	119.45	118.32	115.99	114.14	112.78	111.21	108.91	108.27	106.42	104.52	102.82	101.15	99.959	96.885	95.163	93.122	89.505	86.208	82.536	79.944	75.687	71.859	68.362	65.141	62.151	59.637	55.526	53.433	50.232	47.286	43.672	40.258	36.725	32.705	29.939	26.576	22.695	17.974	13.053	8.1298	2.4245	-3.1225	-8.4205	-13.557	-19.041	-24.444	-30.013	-35.014	-40.888	-46.526	-51.865	-55.631	-60.894	-66.539
-1906.8	-1862.5	-1812.3	-1756.1	-1693.7	-1626.3	-1554.8	-1480.4	-1403	-1320.6	-1241.2	-1162.7	-1086.5	-1013.5	-941.5	-872.5	-804.5	-740.37	-683.16	-626.96	-575.75	-527.54	-485.47	-454.48	-423.49	-393.5	-369.51	-347.52	-329.54	-313.55	-300.56	-284.57	-260.59	-241.58	-224.16	-207.75	-191.72	-176.95	-163.17	-151.39	-142.66	-136.37	-130.16	-123.63	-115.27	-104.5	-91.5	-76.5	-60.5	-42.642	-24.866	-8.3007	6.4997	19.452	29.225	37.999	44.975	50.951	55.599	59.434	61.606	52.866	291.74	367.52	367.71	367.71	374.8	382.77	382.52	381.97	510.85	642.21	642.63	642.62	657.6	672.76	672.91	673.25	673.64	673.38	673.12	673.7	521.33	369.94	370.34	370.31	293.28	217.24	55.215	55.309	55.441	55.255	60.095	54.315	46.984	39.02	30.929	20.307	8.7409	-3.3184	-13.385	-21.789	-30.272	-38.243	-44.777	-50.471	-54.382	-57.823	-59.48	-60.294	-59.088	-58.158	-54.857	-51.471	-47.451	-43.514	-40.361	-37.601	-34.811	-32.446	-30.083	-27.737	-23.42	-19.614	-14.414	-9.2549	-4.5246	0.53437	6.3485	11.501	14.673	17.456	18.986	20.386	20.367	20.999	19.287	17.379	16.13	15.323	15.528	15.184	14.711	14.457	15.831	17.361	20.707	23.238	26.225	28.968	29.974	31.957	33.691	35.49	35.826	35.35	35.363	36.275	37.66	38.39	39.452	39.984	39.8	41.029	42.191	42.583	44.072	45.341	50.075	53.717	57.011	59.49	63.685	66.624	69.204	71.409	72.643	73.085	73.423	73.71	72.882	71.248	67.178	65.76	63.703	61.289	57.077	53.481	49.266	43.702	39.32	34.739	29.97	24.026	20.139	17.841	15.314	13.845	12.864	13.691	15.645	17.745	20.518	23.5	27.241	31.105	36.212	40.775	45.696	51.45	55.85	59.429	63.965	67.885	71.687	72.272	74.658	76.117	76.981	75.624	75.423	75.658	73.033	70.719	68.772	68.474	67.734	68.628	68.773	71.12	71.979	76.723	82.229	86.562	89.328	93.407	99.205	104.04	105.9	109.94	113.66	115.52	119.14	119.29	117.97	115.75	115.47	116.91	115.24	113.08	113.42	115.53	117.84	119.14	123.29	126.79	129.12	132.82	133.99	133.71	131.4	130.69	129.7	123.99	118.16	115.97	113.79	111.03	107.92	103.86	99.232	94.652	93.11	90.985	86.045	82.004	79.771	77.299	76.531	72.806	72.645	71.581	71.884	74.405	75.914	77.85	80.843	87.112	91.032	95.525	98.398	104.74	108.8	114.88	119.86	122.46	124.12	126.82	130.37	133.2	133.62	133.8	133.23	131.46	131.48	130.31	128.23	125.81	125.11	123.51	122.54	119.76	117.8	115.2	114.38	113.48	110.86	108.62	105.73	104.33	102.19	99.296	95.376	91.393	86.203	82.332	79.252	74.967	69.865	65.585	61.936	57.72	54.155	51.174	47.639	44.113	41.833	39.091	34.758	30.179	27.608	23.897	19.892	14.76	9.887	4.4222	-0.84836	-5.8552	-11.114	-16.478	-22.211	-27.513	-33.014	-37.786	-43.669	-48.937	-54.145	-58.522	-64.094	-69.226
-1770.6	-1711.2	-1648.8	-1583.3	-1513.1	-1439.9	-1365.7	-1290.5	-1215.1	-1138.6	-1063.2	-991.81	-923.5	-860.5	-801.5	-744.5	-687.5	-630.41	-576.36	-528.37	-477.38	-427.39	-378.4	-336.41	-301.42	-270.43	-247.44	-229.34	-211.13	-203.05	-198.27	-197.49	-191.11	-183.7	-176.54	-169.55	-163.68	-156.12	-148.57	-141.21	-134.8	-128.75	-123.19	-114.5	-103.5	-89.5	-74.813	-58.039	-41.264	-23.488	-7.626	8.064	21.837	32.611	41.5	49.21	54.93	59.865	367.07	367.23	366.58	366.24	519.31	671.66	671.87	671.76	671.44	670.91	671.09	671.3	640.58	610.75	610.5	610.25	563.99	517.8	518.52	518.66	518.87	519.28	519.64	520.02	597.4	673.79	674.17	674.38	521.35	368.86	368.7	54.13	54.234	54.215	63.625	60.036	54.116	47.577	41.383	34.157	24.195	14.951	6.4363	-1.397	-9.2586	-17.066	-23.695	-30.947	-36.458	-40.993	-42.179	-43.456	-45.672	-45.591	-44.808	-42.231	-39.655	-37.872	-36.3	-34.994	-33.828	-32.868	-31.51	-28.629	-24.954	-21.508	-16.291	-10.076	-5.2875	2.2653	9.711	15.683	20.231	24.56	27.785	29.884	32.68	34.12	32.292	31.292	31.068	31.58	31.295	31.166	29.705	28.439	30.276	32.695	34.321	37.095	38.925	40.417	42.126	44.674	45.988	46.05	46.985	47.526	48.909	47.887	47.232	49.225	49.071	48.064	47.506	46.187	46.568	48.379	48.309	49.266	50.927	55.145	57.592	59.781	61.67	62.116	64.578	65.497	66.923	65.103	63.054	62.213	60.873	56.479	51.972	48.406	45.556	41.475	36.735	32.667	26.805	22.029	17.718	13.936	8.8861	2.7295	-0.4291	-3.1476	-4.5531	-6.0491	-6.3734	-5.1056	-4.9835	-2.9057	-1.2564	1.9034	6.4966	9.5621	13.65	16.909	21.918	26.578	30.268	35.091	38.89	41.739	43.343	46.43	47.304	48.978	49.702	50.572	49.301	47.026	46.87	45.583	44.263	42.498	43.692	43.939	44.903	46.325	49.42	52.033	54.683	59.241	64.197	66.256	68.728	74.213	78.194	81.001	81.752	84.805	87.581	88.799	88.271	87.782	87.379	87.088	88.932	90.574	89.747	88.87	92.327	97.682	104.63	106.51	110.62	112.93	115.6	117.79	119.09	116.19	113.39	109.45	105.76	100.73	94.628	91.715	87.16	84.517	80.175	76.73	72.818	69.004	67.769	66.765	62.259	59.188	59.103	57.868	59.712	58.44	59.464	59.626	62.871	68.559	72.138	74.997	79.814	86.632	92.183	98.172	102.91	110.01	113.55	119.17	125.12	126.86	128.94	132.37	136.33	138.48	137.49	135.95	135.3	133.39	133.68	133.17	130.83	127.05	126.04	126.32	124.11	120.3	118.54	116.25	114.49	114.12	111.43	107.22	102.84	101.82	98.165	94.716	88.558	84.776	78.998	74.56	70.262	64.838	58.891	55.065	52.107	47.646	43.722	40.269	37.53	33.729	31.053	28.048	24.267	19.615	15.081	10.707	5.7665	0.69557	-4.3577	-9.3355	-14.505	-19.627	-25.07	-29.674	-35.041	-40.757	-46.474	-51.159	-56.69	-61.243	-66.499	-70.643
-1612.4	-1542	-1470.6	-1399.4	-1326.2	-1251.9	-1178.7	-1106.5	-1036.1	-967.82	-900.62	-837.42	-778.24	-725.25	-678.25	-633.27	-587.27	-538.28	-488.24	-433.04	-384.83	-335.63	-288.5	-242.5	-203.5	-172.5	-151.5	-137.49	-135.5	-132.5	-134.83	-138.72	-143.37	-146.16	-147.12	-147.98	-147.44	-145.17	-141.76	-138.68	-134.82	-127.59	-118.5	-106.5	-93.823	-78.248	-61.5	-43.5	-23.535	-4.962	10.611	23.5	245.5	245.32	305.89	366.64	366.56	366.77	366.32	365.82	365.61	365.63	518.99	670.98	670.77	670.54	670.58	670.78	670.74	670.49	639.24	609.02	608.85	609.05	563.24	517.37	517.81	518.04	518.22	518.4	518.58	518.85	596.24	672.62	672.83	672.38	519.11	367.64	367.91	368.08	53.491	53.945	54.255	63.206	58.989	55.639	50.572	44.77	38.717	31.866	24.477	17.716	10.34	3.0863	-5.614	-12.943	-19.436	-24.62	-29.215	-32.805	-35.355	-37.835	-37.903	-36.697	-34.926	-34.074	-34.206	-33.966	-33.63	-32.667	-31.918	-29.212	-26.761	-21.702	-16.862	-10.896	-4.6015	3.7357	13.024	18.994	25.052	30.639	34.619	38.651	42.113	43.395	43.996	44.525	44.786	44.177	44.195	43.395	42.111	41.579	42.301	43.427	45.013	48.103	49.412	49.21	51.624	53.586	54.074	54.256	53.167	54.21	54.288	54.04	53.955	53.645	54.85	53.59	53.963	52.219	51.109	52.612	52.767	53.391	54.082	54.932	57.621	59.34	59.923	60.507	59.472	60.295	59.926	57.568	54.347	50.095	46.612	41.788	36.42	31.636	25.902	20.437	16.922	11.786	6.3571	0.36807	-4.0624	-7.9437	-12.106	-18.128	-21.883	-24.326	-26.169	-26.978	-27.545	-26.687	-26.842	-25.672	-23.144	-19.865	-17.024	-13.088	-10.148	-7.3136	-3.6722	-0.066517	3.696	6.9894	10.532	13.043	14.041	15.878	18.272	19.619	20.052	19.395	18.65	18.416	17.142	17.623	17.102	15.657	15.006	15.79	17.52	19.082	20.109	21.515	25.651	28.539	31.161	33.813	36.881	40.321	43.3	46.677	48.335	49.796	51.707	53.54	53.974	53.866	54.436	55.877	59.297	62.408	64.52	66.991	71.847	76.602	84.158	90.845	95.124	96.554	100.3	102.64	104.42	104.11	99.616	93.298	87.101	81.937	77.16	69.711	63.554	60.8	56.892	54.353	50.323	47.27	44.677	42.742	41.725	41.1	38.911	37.128	38.775	40.172	43.022	43.032	46.789	49.612	54.896	62.395	68.163	72.881	79.05	86.957	93.281	99.953	104.97	111.21	114.92	120.72	126.32	129.3	131.28	133.65	135.87	136.37	135.65	133.63	133.55	131.16	132.22	130.61	127.59	124.5	123.07	121.98	119.9	116.91	115.48	112.4	109.1	107.85	104.8	101.07	95.717	91.533	87.683	82.798	76.661	71.158	64.926	59.142	55.833	51.434	45.451	40.925	38.033	34.211	31.615	27.574	24.977	20.787	18.216	14.593	9.7907	4.6994	0.18621	-4.1063	-9.05	-13.045	-18.381	-23.681	-28.496	-33.023	-38.053	-43.852	-49.433	-54.152	-58.394	-63.816	-68.729	-73.107
-1438.7	-1363.5	-1290.3	-1218.1	-1145.9	-1075.7	-1007.6	-942.38	-878.18	-815.99	-756.8	-699.6	-648.42	-603.42	-562.27	-524.86	-487.48	-446.29	-401.13	-357.08	-313.1	-271.11	-231.13	-191.15	-156.18	-128.2	-110.22	-103.27	-100.71	-102.65	-105.24	-110.92	-118.94	-126.47	-131.54	-134.67	-136.88	-137	-136.19	-135	-130.41	-120.8	-108.88	-95.53	-80.068	-63.077	-43.672	-24.873	-6.302	11.5	154.5	245.5	245.34	245.14	305.93	366.72	366.5	366.32	366.12	365.91	365.58	365.5	518.5	670.5	670.47	670.17	669.53	669.24	669	669.08	638.29	608.39	608.36	608.26	562.43	516.61	516.82	517	517.18	517.36	517.34	517.68	595.06	670.81	670.83	671.24	518.44	366.38	366.33	367.15	52.951	53.365	53.105	52.94	53.445	62.899	60.346	56.478	51.657	47.039	41.995	37.896	30.386	21.469	11.401	3.1691	-5.0623	-13.141	-20.128	-26.183	-31.053	-35.615	-37.865	-36.272	-35.445	-35.156	-35.089	-33.51	-33.677	-33.895	-32.779	-29.897	-26.097	-21.227	-15.99	-9.5489	-2.237	7.1393	15.509	22.413	31.189	36.494	42.056	46.509	50.175	51.846	52.247	53.505	53.694	53.029	52.591	51.793	51.346	51.264	51.79	52.098	52.956	53.839	54.567	54.621	54.458	512.96	512.81	511.76	44.426	43.996	44.574	45.133	45.345	44.698	43.532	44.398	44.573	44.963	53.78	52.837	54.372	55.217	55.946	56.26	55.435	56.657	58.345	57.61	57.755	54.278	53.259	51.57	46.747	41.545	34.203	27.674	20.625	15.279	7.7684	-0.083826	-5.4856	-10.274	-15.008	-20.817	-26.97	-30.737	-34.779	-39.537	-41.448	-45.617	-47.004	-48.235	-48.254	-48.065	-47.632	-47.673	-45.912	-42.881	-40.213	-36.648	-34.627	-32.852	-30.475	-26.996	-24.228	-22.392	-20.179	-17.933	-15.638	-13.833	-13.811	-12.629	-12.047	-11.799	-12.477	-12.732	-12.284	-11.914	-12.535	-13.697	-13.86	-13.691	-12.481	-11.14	-10.904	-10.017	-8.8278	-6.1046	-3.5818	-1.0173	1.1026	4.6646	7.2919	9.5561	10.948	12.805	14.52	15.733	16.432	17.589	21.337	24.932	30.649	37.937	43.723	48.944	55.923	62.731	70.405	77.396	82.428	86.256	88.136	88.663	89.466	87.004	81.92	76.01	69.487	61.827	53.386	45.554	40.775	35.005	29.947	26.564	24.207	22.528	19.415	17.827	15.957	15.423	15.23	15.104	15.199	17.476	20.554	23.266	26.677	29.02	34.914	40.301	48.055	56.399	63.196	69.665	75.243	83.164	90.1	97.728	102.7	109.61	113.81	118.79	125.09	126.7	127.02	127.7	129.62	128.66	127.78	126.27	125.79	122.37	122.22	122.4	119.29	115.45	113.37	113.21	111.36	108.72	104.58	102.76	98.275	95.805	92.859	87.349	80.807	76.037	70.512	64.968	58.2	51.477	46.115	41.04	36.832	33.374	28.553	24.281	21.9	18.854	16.547	13.986	10.231	5.4277	0.8533	-2.3286	-5.5491	-10.848	-16.398	-20.549	-25.328	-29.035	-32.281	-37.331	-43.123	-49.345	-53.824	-56.423	-61.572	-67.41	-71.668	-76.825
-1260	-1182.8	-1109.6	-1039.4	-972.17	-908.96	-847.77	-790.56	-734.36	-680.16	-627.95	-578.75	-534.62	-493.47	-458.28	-424.45	-391.68	-358.78	-324.8	-292.74	-260.34	-228.94	-198.52	-168.5	-142.5	-123.5	-110.5	-103.5	-99.17	-98.825	-100.84	-105.73	-112.86	-120.13	-126.56	-131	-133.22	-133.37	-130.72	-126.89	-119.72	-110.37	-95.963	-79.98	-62.634	-43.53	-25.546	-7.5	153.5	153.45	230.23	306.33	306.24	305.82	335.5	366.5	366.5	366.12	441.69	517.5	517.5	517.42	594.09	669.86	669.28	668.71	668.5	668.57	668.77	668.98	614.56	561.11	561.04	561.21	561.51	561.85	561.82	561.65	530.61	501.06	501.44	501.62	524.78	548.02	548.19	548	432.74	319	319.8	320.43	228.64	51.864	51.937	52.212	52.129	52.509	53.117	53.381	61.771	60.289	59.265	55.52	47.815	38.952	28.756	18.527	8.0449	-2.4505	-12.343	-21.818	-31.096	-36.848	-38.539	-38.331	-38.697	-37.7	-35.706	-34.688	-33.278	-33.402	-31.042	-27.683	-23.734	-18.233	-13.11	-5.9149	2.8876	10.837	18.852	27.534	35.901	41.587	47.845	52.764	54.842	56.982	58.856	59.388	59.283	59.017	58.246	57.899	58.11	57.735	57.296	56.508	55.93	47.58	46.938	513.49	513.25	512.73	512.42	511.93	358.89	206.59	206.73	207.55	207.73	206.46	206.33	205.73	44.264	45.061	44.88	43.94	43.52	44.534	45.208	45.976	45.041	44.914	54.861	56.413	55.036	51.738	47.466	43.817	39.641	32.021	24.835	14.75	5.1135	-1.4337	-9.0682	-17.165	-24.431	-31.65	-37.287	-41.09	-47.475	-50.787	-57.526	-59.669	-62.302	-64.229	-67.155	-69.79	-69.262	-69.544	-68.565	-69.546	-68.955	-66.096	-63.077	-60.234	-58.822	-59.393	-57.332	-53.983	-51.354	-48.636	-49.294	-47.445	-45.019	-43.937	-44.398	-43.582	-43.286	-43.552	-43.733	-42.677	-42.581	-44.048	-44.234	-44.203	-43.579	-44.331	-45.188	-44.115	-43.461	-43.205	-41.969	-41.844	-40.382	-38.087	-33.569	-31.566	-30.699	-28.735	-26.393	-22.711	-22.572	-22.945	-21.733	-17.546	-12.271	-5.2063	4.2114	12.611	22.165	31.991	42.303	50.171	57.297	65.05	70.977	73.563	74.644	74.254	71.438	66.803	60.614	55.834	47.148	37.912	27.916	20.168	13.611	8.1884	3.1373	-1.2326	-4.1388	-6.1663	-7.7847	-8.4866	-9.3805	-9.6825	-10.113	-9.5861	-7.9618	-5.9603	-3.8808	-1.0856	2.6419	7.284	12.356	17.82	25.855	33.224	40.811	47.928	54.663	61.633	68.605	78.321	85.98	92.958	97.361	103.45	107.73	112.01	115.32	116.13	116.51	116.77	117.58	116	115.83	112.64	111.94	109.36	108.6	108.25	105.36	102.11	99.661	99.154	96.331	94.571	89.7	86.727	81.866	77.513	73.755	66.775	59.177	52.458	47.895	41.894	36.015	29.135	24.011	17.729	16.035	14.731	11.459	7.2446	4.3376	1.9719	-1.3303	-4.2536	-9.2205	-13.461	-17.891	-21.009	-24.518	-29.538	-34.62	-38.706	-41.126	-44.788	-49.217	-55.758	-61.051	-64.166	-67.456	-72.049	-75.977	-80.984
-1074	-995.8	-923.59	-857.44	-797.24	-742.04	-689.84	-640.64	-594.53	-550.53	-507.53	-467.55	-430.55	-395.5	-363.5	-334.5	-307.5	-281.5	-257.24	-233.82	-212.68	-193.7	-173.72	-155.75	-139.77	-127.21	-117.75	-112.55	-108.39	-106.23	-107.54	-110.97	-116.18	-122.44	-127.54	-130.54	-131.23	-130.02	-125.99	-118.45	-108.89	-94.767	-77.567	-59.425	-39.441	-20.399	-2.2161	13.968	244.52	244.11	305.05	366.23	366.43	366.5	51.501	51.01	50.55	50.45	518.5	670.5	670.11	669.69	669.27	668.84	668.5	668.5	668.5	668.15	667.92	667.7	590.5	47.498	47.511	514.88	560.94	606.68	606.41	606.52	546.05	485.29	485.68	485.77	454.76	424.79	424.73	424.7	347.77	272.49	272.64	272.75	242.26	212.72	212.95	212.35	50.599	51.495	61.903	61.463	60.866	51.528	52.246	51.128	60.477	52.342	41.936	29.683	16.886	5.4969	-5.5822	-16.499	-26.892	-32.89	-36.49	-37.136	-37.407	-36.535	-33.949	-33.494	-31.935	-29.665	-27.305	-22.947	-17.58	-13.35	-6.6757	0.75013	9.1026	17.278	24.788	32.096	39.186	45.542	64.021	63.823	216.09	367.58	367.07	365.7	365.14	364.77	364.33	364.7	226.49	89.345	88.965	87.862	47.906	47.952	47.531	47.286	47.266	46.51	45.53	512.5	436.54	360.75	360.56	360.78	360.51	360.26	360.57	360.22	206.72	55.397	54.995	54.552	44.293	43.812	44.376	44.508	44.983	44.51	44.607	54.286	52.315	49.324	44.368	38.499	30.124	24.112	14.664	4.7775	-6.2516	-17.576	-23.921	-32.854	-39.264	-48.602	-55.996	-60.544	-63.853	-68.71	-73.832	-79.759	-81.488	-82.472	-85.778	-87.006	-89.838	-90.128	-89.711	-88.651	-87.993	-87.827	-86.393	-83.598	-80.824	-81.558	-80.631	-80.131	-77.263	-74.62	-73.893	-73.88	-76.305	-74.005	-72.68	-72.36	-73.461	-75.503	-74.566	-73.808	-73.784	-72.807	-74.598	-74.29	-73.853	-73.115	-74.844	-77.465	-76.662	-74.952	-75.547	-75.899	-74.186	-73.794	-70.507	-69.365	-65.909	-65.218	-64.843	-62.348	-59.545	-57.236	-56.016	-51.583	-45.639	-35.456	-25.66	-14.873	-3.6542	5.0041	15.162	25.456	34.68	39.49	42.586	46.877	48.641	45.559	42.735	38.34	33.908	27.245	18.617	10.107	0.21972	-9.0055	-15.051	-20.02	-25.29	-29.909	-32.422	-33.895	-35.325	-36.748	-35.643	-35.178	-35.067	-35.348	-33.025	-31.383	-29.075	-25.909	-22.153	-17.5	-12.594	-5.7851	0.88746	7.5699	14.898	21.029	29.439	37.639	45.904	54.486	62.599	70.6	77.426	84.069	87.977	93.186	95.067	98.739	101.56	102.26	101.01	100.22	99.564	98.575	96.834	93.878	92.941	90.738	89.678	88.405	86.151	83.5	81.436	79.444	77.032	74.577	69.894	64.976	59.083	53.456	48.419	41.219	33.497	26.742	20.384	13.752	8.975	3.1053	-0.44179	-3.6306	-6.4972	-7.8709	-9.768	-14.568	-18.122	-19.763	-23.458	-26.437	-30.33	-34.03	-38.382	-41.773	-45.314	-48.657	-51.812	-55.808	-59.889	-64.713	-68.645	-71.722	-75.11	-79.35	-83.356	-86.312
-884.81	-808.73	-738.54	-675.38	-620.19	-573	-530.8	-492.6	-456.41	-421.21	-388.01	-357.81	-328.61	-301.5	-276.5	-253.5	-233.5	-216.5	-201.5	-189.5	-176.48	-165.27	-155.06	-145.66	-137.2	-130.07	-125.08	-122.09	-119.21	-117.42	-117.76	-119.1	-122.7	-126.54	-129.26	-131.42	-131.84	-129.12	-123.38	-113.24	-100.04	-83.025	-64.322	-43.771	-22.587	-3.4021	14.33	28.901	40.669	50.069	56.469	59.691	50.873	50.7	50.15	58.961	59.168	59.364	59.22	58.79	57.37	56.95	57.54	57.504	48.498	48.27	47.85	47.5	667.5	667.5	590.5	514.5	514.32	513.99	559.8	605.99	606.37	606.5	545.64	484.9	484.87	484.84	453.82	423.55	423.3	423.4	347.32	271.25	270.85	271.7	241.38	211.8	210.86	210.79	135.78	60.352	60.147	59.572	59.79	50.632	49.711	50.07	50.856	60.343	51.265	39.826	28.42	16.906	5.1106	-4.9368	-14.609	-22.215	-27.172	-29.8	-30.364	-29.373	-28.668	-27.152	-26.269	-23.926	-20.568	-16.068	-12.057	-6.5017	-0.38832	6.8489	14.313	22.142	29.116	36.187	41.989	48.627	63.564	63.976	216.35	367.73	366.67	365.67	365.23	364.95	365.18	365.18	227.05	89.893	89.236	88.525	302.58	515.44	515.09	515.51	515.25	514.49	513.61	513.25	437.77	361.46	361.62	361.5	360.89	361.94	362.4	361.39	208.61	55.891	55.394	55.645	55.244	45.192	44.372	44.27	44.759	45.166	54.235	52.989	48.999	45.959	41.232	33.655	25.814	15.215	6.4267	-3.7664	-14.945	-26.125	-37.165	-45.215	-53.072	-59.307	-68.766	-75.655	-79.239	-83.914	-88.079	-93.902	-97.82	-100.94	-101.47	-103.39	-104.75	-107.92	-110.09	-107.4	-106.17	-103.99	-104.73	-105.14	-102.73	-101.41	-99.984	-100.67	-101.43	-100.37	-97.545	-97.795	-97.747	-100.81	-100.59	-98.899	-98.852	-100.67	-100.96	-102.26	-100.57	-101.46	-100.26	-101.45	-104.36	-104.92	-103.76	-103.99	-106.91	-108.8	-108.02	-106.22	-106.15	-106.34	-105.5	-103.41	-101.03	-100.01	-96.685	-96.951	-95.843	-93.225	-87.762	-83.971	-78.829	-70.677	-59.763	-47.547	-39.071	-27.689	-19.599	-10.376	-2.9098	5.1463	9.7243	10.827	9.3052	9.9179	9.9941	5.7379	0.44365	-7.0523	-14.704	-22.7	-29.964	-36.279	-43.998	-49.229	-53.333	-55.679	-58.981	-62.642	-62.55	-62.861	-62.587	-62.293	-60.474	-60.51	-59.145	-57.44	-54.96	-49.904	-47.325	-43.819	-38.488	-32.618	-26.596	-18.975	-13.631	-5.3862	2.2477	11.88	20.36	29.127	37.6	45.755	52.884	60.54	66.473	70.664	74.323	77.834	79.749	80.863	82.006	81.761	79.71	78.196	76.246	75.473	73.729	72.135	71.177	70.278	68.307	66.789	64.961	62.292	59.484	56.896	53.683	50.017	44.733	38.957	33.112	27.231	20.999	12.977	4.984	-1.1589	-6.5746	-13.006	-17.534	-21.675	-25.758	-28.54	-31.036	-32.569	-34.616	-37.876	-40.722	-43.909	-46.373	-48.863	-51.474	-55.261	-58.551	-61.865	-64.958	-67.255	-70.218	-73.831	-77.708	-81.032	-83.143	-86.324	-90.047	-92.128
-716.24	-640.84	-569.63	-507.43	-456.24	-414.03	-380.83	-353.64	-327.44	-302.24	-281.04	-260.88	-242.89	-224.89	-208.9	-194.91	-181.84	-170.65	-162.45	-155.25	-148.05	-143.96	-139.97	-136.98	-133.99	-132	-129.85	-129.09	-127.66	-127.01	-126.61	-127.21	-130.08	-133.13	-135.35	-135.56	-134.77	-129.66	-121.5	-110.45	-94.712	-76.34	-55.5	-33.471	-12.507	7.2601	24.086	38.285	48.16	55.259	58.223	49.211	49.387	49.535	58.386	57.145	55.104	53.281	517.45	669.06	668.64	668.31	668.26	668.35	667.97	667.55	667.5	667.5	667.5	667.5	590.45	514.04	513.62	513.8	560.22	606.5	606.5	606.29	545.07	483.97	483.95	483.92	452.69	421.99	422.09	423.25	346.44	270.01	270.35	271.04	240.58	209.85	209.67	210.26	134.78	58.859	58.491	58.638	58.99	58.621	48.683	49.322	49.683	49.695	58.796	49.361	39.67	28.832	19.017	9.671	1.0678	-6.9576	-12.845	-15.925	-17.202	-16.875	-17.135	-17.172	-16.208	-15.189	-11.557	-8.0667	-4.3985	0.5636	6.5822	13.177	19.152	26.026	32.655	38.487	45.953	50.949	55.586	59.421	61.191	367.55	366.53	366.3	365.56	365.59	365.87	365.84	227.63	90.251	89.288	89.137	303.25	515.89	516.2	516.38	516.31	515.55	514.55	514.36	438.23	362.26	362.49	362.34	362.33	363.77	363.82	363.27	210.05	56.827	56.692	56.504	56.878	56.366	56.083	55.42	44.905	46.135	54.932	52.349	48.009	42.711	36.773	29.34	20.282	9.863	-1.6527	-11.728	-21.775	-33.64	-44.323	-55.033	-62.977	-69.905	-79.517	-85.63	-91.624	-97.153	-101.57	-105.2	-109.51	-113.37	-117.89	-119.02	-118.8	-121.16	-122.09	-124.58	-122.43	-119.55	-118.25	-119.6	-120.97	-119.69	-119.33	-117.21	-119.4	-119.42	-120.54	-118.64	-117.94	-119.86	-120.46	-122.99	-121.52	-121.62	-119.63	-122.91	-126.07	-126.11	-125.31	-127.82	-126.65	-130.43	-132.82	-134.25	-133.17	-133.02	-135.56	-137.88	-135.75	-132.83	-134.04	-133.46	-132.69	-130.53	-129.03	-127.26	-123.52	-123.42	-121.34	-116.99	-108.66	-100.4	-93.386	-84.466	-73.115	-62.829	-57.028	-46.728	-40.701	-34.723	-30.614	-26.874	-25.123	-27.52	-29.085	-30.575	-32.279	-39.972	-46.238	-53.905	-59.44	-66.136	-71.072	-74.599	-79.705	-84.092	-84.378	-84.847	-85.555	-87.689	-88.322	-87.167	-85.588	-84.295	-82.327	-81.56	-78.488	-75.382	-70.085	-67.367	-63.476	-59.644	-52.582	-46.16	-40.992	-32.016	-23.85	-15.652	-6.606	3.0669	12.64	20.841	27.337	35.498	42.794	47.922	52.142	54.491	56.74	57.707	59.304	59.315	58.067	56.368	54.289	53.76	53.122	51.973	51.903	49.77	48.576	46.779	46.234	43.737	40.752	38.134	35.981	32.543	29.344	24.273	19.321	12.261	5.9066	-1.6117	-8.682	-16.335	-22.574	-29.959	-35.444	-40.003	-44.041	-47.942	-50.702	-53.057	-54.333	-55.67	-58.97	-60.94	-63.028	-65.181	-67.808	-69.29	-72.097	-75.274	-78.387	-79.995	-82.428	-84.901	-86.417	-89.54	-91.995	-95.351	-97.294	-99.634
-564.8	-492.59	-422.5	-367.45	-325.26	-290.06	-260.86	-239.79	-224.79	-211.8	-200.8	-190.81	-181.67	-173.48	-165.28	-157.08	-149.88	-144.68	-140.5	-137.5	-135.5	-134.5	-134.5	-134.5	-134.3	-134.56	-135.14	-134.5	-133.5	-133.12	-132.99	-134.91	-136.8	-140	-141.22	-140.12	-138.06	-132.08	-124.09	-111.44	-95.5	-76.5	-54.67	-33.077	-13.378	195.81	249.72	302.28	48.87	48.831	53.139	55.53	55.353	53.929	51.727	50.114	47.51	44.393	40.158	35.913	32.771	32.956	33.742	36.525	40.5	44.5	48.5	53.5	56.5	47.169	445.75	407.67	408.08	408.37	461.15	514.93	514.71	514.48	468.35	422.05	422.03	422.11	406.73	391.53	392.19	392.66	353.44	315.7	315.91	316.35	299.97	284.72	285.26	285.46	239.62	194.6	194.62	195.02	125.57	57.45	57.739	48.104	48.463	48.723	49.306	56.429	47.596	39.758	31.168	23.965	16.097	9.3169	3.05	0.58284	-2.1179	-3.0147	-4.0507	-5.0871	-5.1237	-3.7477	-2.2579	0.72447	3.6873	7.6498	13.009	19.161	24.774	30.664	36.717	42.104	48.505	52.921	56.941	59.7	61.22	61.43	291.23	290.48	328.42	366.21	366.44	366.36	335	303.37	302.91	302.87	417.91	531.97	532.14	532.18	524.01	516.39	515.41	515.25	439.4	363.23	363.65	363.34	364.21	365	364.44	364.59	264.1	164.78	164.57	164.39	187.03	210.06	210	209.35	133.41	56.849	57.375	57.708	58.051	57.883	57.597	58.069	2.7891	4.0242	-7.3917	-19.149	-30.009	-40.452	-51.481	-61.653	-71.074	-81.801	-88.228	-94.825	-100.3	-106.19	-112.25	-115.5	-119.1	-120.95	-125.62	-129.03	-130.26	-129.96	-130.55	-131.54	-132.67	-132.38	-130.35	-131.24	-131.01	-133.81	-135.42	-132.95	-133.57	-133.03	-135.42	-137.72	-138.39	-136.73	-137.02	-136.89	-141	-143.16	-140.25	-142.38	-141.31	-145.81	-148.61	-146.85	-149	-151.64	-152.26	-155.67	-154.91	-155.48	-155.08	-156.78	-160.04	-159.72	-156.99	-154.7	-156.76	-156.24	-157.22	-152.66	-151.46	-148.78	-144.96	-143.32	-138.55	-128.95	-118.22	-111.89	-106.88	-99.611	-89.008	-81.188	-75.994	-69.365	-67.497	-63.576	-62.416	-59.818	-60.779	-65.629	-68.831	-70.621	-73.621	-81.477	-86.496	-92.756	-95.512	-99.327	-101.18	-102.79	-106.74	-107.92	-107.69	-106.12	-106.17	-107.55	-107	-104.37	-102.55	-101.39	-97.647	-95.853	-92.888	-89.941	-84.378	-80.422	-77.404	-73.322	-65.871	-56.697	-49.389	-40.525	-32.782	-22.694	-13.497	-3.5485	5.2998	12.951	18.519	24.546	30.006	31.916	34.591	35.158	34.733	35.256	34.699	34.548	33.004	31.311	31.023	31.283	30.996	29.685	28.984	25.899	25.338	24.321	23.832	21.772	18.16	15.976	13.482	10.526	4.2492	0.58543	-7.4215	-14.051	-22.896	-28.95	-36.321	-44.979	-50.761	-56.148	-59.659	-65.066	-67.309	-69.96	-73.081	-75.093	-76.472	-76.85	-78.951	-81.141	-82.667	-84.296	-87.277	-88.538	-90.565	-93.42	-94.782	-95.477	-96.401	-99.2	-100.89	-103.14	-105.15	-107.72
-426.69	-364.69	-312.68	-271.5	-235.5	-206.5	-184.5	-167.45	-156.05	-151.84	-149.63	-148.42	-147.29	-145.49	-143.31	-141.12	-137.92	-134.72	-133.53	-132.5	-133.5	-133.5	-134.59	-134.79	-135.16	-136.5	-136.5	-136.38	-135.44	-134.36	-134.25	-137.46	-141.67	-144.87	-145.96	-144.98	-140.99	-135.79	-127.6	-116.5	-102.64	-86.101	-67.721	-46.617	-28.5	332.32	347.91	362.5	362.5	362.58	362.53	362.28	362.11	362.3	362.2	362.1	361.86	361.72	393.11	423.48	423.24	422.8	361.67	25.064	26.453	32.5	39.5	46.129	51.61	55.429	300.67	46.868	46.777	46.559	46.389	46.121	45.899	46.041	45.724	45.5	45.624	45.5	54.504	361.07	361.13	360.87	360.94	360.93	361.44	361.18	360.83	361.07	361.23	361.44	345.71	330.68	330.9	330.47	193.48	56.739	56.549	47.23	47.686	48.269	48.404	48.371	54.519	47.581	42.287	35.731	29.546	24.169	19.483	15.642	12.801	10.029	8.0343	6.1347	6.4796	6.5719	7.8485	8.811	11.774	15.893	20.257	24.838	29.672	34.96	40.347	45.505	49.945	54.43	57.21	59.57	60.66	61.04	52.43	52.187	290.81	366.91	366.75	366.56	442.36	517.86	518.03	517.67	533.7	548.87	548.97	548.75	532.76	516.75	516.2	516.59	440.55	364.63	364.65	364.97	366.07	365.87	365.83	365.55	319.51	273.87	273.63	273.26	318.8	364.82	365.06	364.98	211.89	59.62	58.832	59.681	32.427	32.196	25.1	15.975	5.9322	-4.7983	-15.307	-26.386	-38.669	-49.848	-59.381	-68.68	-78.769	-88.893	-97.87	-103.46	-108.25	-113.46	-118.82	-123.62	-125.41	-127.87	-129.83	-133.4	-136.08	-136.79	-136.35	-134.37	-136.87	-137.53	-140.4	-140.09	-140.04	-142.31	-143.02	-146.82	-146.35	-146.95	-146.56	-149.17	-151.74	-154.1	-152.81	-150.21	-154.43	-155.66	-159.51	-158.14	-155.4	-157.34	-158.69	-163.92	-164.91	-164.45	-168.43	-168.5	-169.15	-171.99	-172.68	-173.23	-172.95	-175.47	-176.53	-175.16	-173.82	-172.78	-174.78	-173.06	-171.77	-166.23	-164.72	-159.34	-153.68	-150.55	-143.66	-136.13	-127.36	-122.99	-117.99	-111.48	-104.48	-99.804	-98.107	-94.326	-93.073	-90.833	-91.912	-92.144	-94.063	-98.897	-102.64	-103.76	-106.43	-112.66	-115.32	-118.95	-118.45	-121.32	-121.11	-121.83	-123.69	-123.89	-122.7	-120.39	-120.42	-120.6	-119.77	-116.5	-114.58	-113.14	-109.8	-108.25	-106	-101.9	-97.062	-91.767	-88.072	-81.41	-73.499	-63.64	-55.546	-45.464	-36.291	-27.512	-18.142	-8.4741	-0.13918	3.7573	6.7842	10.694	13.447	14.784	14	13.044	11.382	11.164	11.933	12.737	12.057	9.5759	8.8151	10.067	9.4174	8.0739	8.4408	7.2908	6.2481	4.7383	5.5614	4.2895	0.49278	-3.6834	-7.2533	-10.684	-17.914	-24.093	-31.856	-40.915	-49.105	-56.29	-61.713	-68.816	-73.633	-78.561	-80.912	-84.305	-87.19	-88.462	-91.024	-94.13	-94.58	-94.335	-95.668	-98.67	-99.932	-100.88	-102.46	-104.35	-104.92	-105.36	-106.96	-108.15	-109.83	-110.55	-113.01	-113.85
-349.97	-299.77	-260.57	-229.49	-200.1	-177.71	-159.32	-145.93	-136.67	-131.83	-130.03	-129.24	-130.44	-131.36	-131.16	-130.96	-129.75	-129.55	-130.5	-131.63	-131.82	-132.02	-131.21	-130.23	-130.12	-129.91	-131	-132.19	-132.59	-131.91	-133.12	-135.33	-136.47	-137.36	-137.44	-135.25	-132.05	-127.78	-122.74	-117.51	-110.13	-99.078	-84.005	-69.02	331.96	331.55	347.5	362.5	362.33	361.93	361.65	361.83	361.74	361.33	360.89	360.75	361.14	361.53	392.43	422	421.7	422.09	361.48	300.76	300.93	300.85	300.23	300.01	300.13	300.33	300.5	300.5	300.5	300.1	360.69	421.53	421.73	421.5	390.5	360.5	360.5	55.503	54.78	54.56	360.34	360.15	360.02	360.54	360.45	360.23	360.01	360.01	360.44	360.82	344.88	329.86	329.38	329.67	193.19	55.959	46.201	46.648	47.231	47.517	47.485	47.292	46.993	55.526	51.142	46.446	41.287	37.254	33.402	29.592	27.148	23.835	21.277	19.602	17.565	17.97	17.933	18.984	20.86	24.357	27.334	31.104	35.248	39.59	43.632	47.811	51.385	54.51	57.01	57.89	60.28	60.66	61.04	52.42	52.328	52.141	366.95	366.46	442.66	519.03	518.64	518.54	534.27	549.49	549.48	549.62	533.68	517.6	517.62	517.98	441.81	365.8	366.14	366.68	367.34	367.23	366.97	59.031	59.112	56.676	53.534	49.963	47.94	45.461	43.987	42.638	40.861	38.235	34.457	30.953	26.617	20.728	13.027	4.3463	-5.0519	-15.054	-24.184	-35.304	-46.361	-57.956	-67.778	-76.22	-85.651	-94.632	-101.91	-109.39	-113.78	-117.86	-122.52	-126.22	-129.25	-131.55	-133.03	-136.14	-137.06	-138.34	-139.4	-138.5	-139.04	-140.81	-144.12	-146.99	-148.87	-148.77	-149.98	-151.67	-154.31	-157.02	-155.98	-157.84	-158.32	-161.75	-163.25	-162.67	-163.36	-163.31	-166.13	-168.33	-170.33	-167.75	-167.85	-169.3	-172.01	-175.52	-175.37	-174.74	-177.65	-178.59	-181.21	-183.16	-184.59	-183.54	-182.81	-183.92	-186.07	-185.04	-182.93	-182.13	-181.96	-178.53	-174.31	-169.12	-166.65	-161.11	-156.89	-153.3	-147.6	-141.18	-135.09	-131.9	-130.1	-126.86	-120.95	-117.69	-118.04	-116.99	-117.54	-116.53	-117.83	-117.27	-119.51	-123.73	-127.2	-126.76	-126.94	-130.07	-131.16	-132.97	-131.65	-132.55	-132.45	-131.62	-132.68	-133.03	-130.91	-128.67	-128.56	-129.46	-129.3	-126.59	-123.53	-122.06	-117.91	-116.28	-114.05	-109.78	-103.25	-96.448	-91.114	-83.566	-75.069	-63.607	-56.398	-47.293	-39.312	-32.824	-26.363	-19.253	-13.299	-10.255	-9.2558	-8.267	-5.8961	-5.7326	-7.1321	-7.0381	-8.4389	-7.9207	-6.869	-5.359	-5.4425	-7.54	-8.7967	-7.8956	-6.1688	-7.6614	-6.7413	-7.3885	-8.7909	-9.3932	-10.86	-12.31	-16.921	-21.984	-27.824	-32.308	-39.818	-47.201	-53.538	-62.685	-69.965	-75.548	-80.565	-85.899	-91.683	-94.198	-97.289	-100.23	-103.76	-104.17	-105.73	-108.75	-108.36	-107.77	-109.14	-111.32	-111.37	-113.28	-113.83	-114.65	-113.74	-114.37	-116.74	-118.77	-117.95	-117.61
-298.54	-257.54	-224.55	-198.52	-175.33	-157.13	-143.94	-134.74	-128.55	-124.35	-123.16	-122.97	-122.77	-124.61	-125.62	-125.63	-123.64	-123.64	-124.61	-123.5	-122.5	-119.5	-116.5	-113.56	-110.82	-111.22	-112.62	-114.02	-113.25	-112.22	-113.01	-114.92	-118.11	-121.3	-124.19	-122.79	-119.73	-118.53	-116.18	-112.77	-107.9	-101.92	-93.932	-82.392	-67.43	331.5	347.37	361.97	361.56	361.5	-13.5	-12.649	-1.979	360.83	360.64	360.57	360.62	360.46	391.46	421.46	421.23	421.38	360.76	300.11	299.84	299.62	299.65	299.84	300.03	300.22	300.41	300.22	299.81	299.32	359.92	421.29	421.5	421.5	390.36	360.19	360.38	360.2	359.98	359.96	359.89	359.48	359.57	359.89	359.67	359.45	359.38	359.5	359.93	360.22	344.3	328.87	329	329.64	192.41	55.519	55.909	46.287	46.63	46.599	46.211	46.052	46.203	46.669	47.226	55.402	50.37	46.337	43.516	39.998	36.751	34.202	31.68	29.645	27.959	27.176	27.47	27.243	29.318	31.74	34.601	37.392	40.538	43.759	46.719	50.251	53.64	55.52	57.282	58.502	59.89	213.27	213.65	214.03	291.41	367.34	366.73	366.46	442.97	519.39	519.32	518.94	534.96	549.82	550.12	550.97	534.41	518.86	518.79	519.2	442.85	367.39	52.921	53.35	53.605	61.194	58.526	55.647	53.208	50.28	45.752	42.048	38.456	35.693	33.177	31.959	30.524	27.504	24.096	20.249	15.524	9.6002	2.2807	-6.2027	-15.258	-25.266	-35.427	-45.98	-57.442	-67.398	-77.185	-85.225	-94.48	-101.99	-108.25	-114.99	-118.45	-122.76	-126.12	-128.57	-130.82	-134.13	-137.38	-137.97	-139.39	-139.52	-139.04	-141.07	-142.79	-145.01	-146.78	-149.81	-151.4	-154.09	-154.27	-155.09	-157.76	-159.37	-163.4	-163.76	-163.8	-164.74	-165.92	-168.19	-169.95	-168.36	-168.29	-170.41	-171.61	-173.94	-173.75	-172.44	-175.15	-174.97	-177.3	-179.02	-179.25	-179.89	-183.24	-184.36	-185.54	-184.76	-186.85	-187.74	-188.35	-189.47	-190.29	-187.86	-184.52	-182.05	-181.29	-178.1	-173.9	-169.43	-166.88	-160.97	-157.28	-154.14	-149.74	-145.71	-142.26	-140.03	-138.11	-134.74	-133.09	-133.17	-133.19	-132.69	-133.29	-132.68	-134.19	-134.69	-136.79	-139.41	-138.38	-137.45	-137.12	-139.64	-140.07	-140.12	-138.9	-139.66	-139.12	-137.92	-138.31	-137.84	-136.39	-134.88	-133.44	-135.24	-133.9	-131.39	-127.89	-126.91	-123.77	-122.63	-118.79	-112.94	-105.61	-98.236	-92.205	-83.783	-75.532	-65.253	-57.798	-50.224	-43.835	-39.184	-33.861	-28.431	-24.354	-23.434	-24.778	-25.404	-24.231	-22.202	-24.099	-21.765	-21.539	-22.063	-20.967	-20.017	-18.244	-20.051	-20.253	-19.375	-16.796	-16.495	-17.065	-16.376	-19.664	-20.991	-22.942	-24.328	-30.697	-37.928	-45.153	-51.024	-57.84	-66.884	-71.944	-80.668	-89.917	-94.619	-96.756	-99.191	-104.09	-108.15	-111.8	-111.57	-113.54	-113.47	-114.47	-116.06	-118.29	-117.15	-115.82	-117.35	-119.69	-120.54	-119.63	-119.51	-120.38	-120.51	-121.63	-121.67
-265.11	-230.93	-201.73	-177.54	-160.35	-147.15	-136.96	-130.76	-126.57	-124.48	-124.48	-123.47	-122.47	-120.46	-117.42	-112.23	-107.03	-101.84	-97.648	-92.633	-86.836	-79.04	-72.24	-67.441	-64.366	-63.355	-65.344	-66.333	-65.323	-64.5	-64.663	-65.857	-67.726	-70.523	-75.614	-77.137	-76.732	-77.322	-81.905	-78.08	-77.581	-77.969	-77.973	-76.203	-74.602	-74.999	-74.403	224.5	-54.5	-53.5	-60.507	376.3	376.11	375.79	444.5	512.5	512.46	512.46	528.25	542.98	543.1	543.51	512.43	482.22	482.15	482.34	482.53	482.73	482.92	482.9	520.47	558.05	557.43	557.3	572.88	588.27	588.44	588.08	480.88	375.07	374.73	374.36	450.64	526.63	526.22	526.21	534.4	542.1	541.88	542.3	458.5	374.36	374.55	374.74	412.65	450.9	451.12	450.91	389.85	329.23	329.61	329.74	329.66	329.19	329.17	329.51	192.9	56.275	46.519	46.487	55.452	52.794	49.903	46.871	44.127	42.698	39.766	38.07	35.44	34.828	34.73	34.586	35.678	37.956	39.624	41.48	44.883	46.859	50.235	52.69	54.99	211.8	211.75	212.12	250.5	288.88	289.26	289.64	329.01	366.98	366.46	366.66	404.99	443.17	443.37	443.41	451.22	459.4	459.81	460.46	452.43	444.02	444.62	444.16	330.14	216.99	217.48	58.062	57.474	54.437	51.768	48.601	45.205	41.394	36.21	32.065	27.356	24.068	22.555	20.057	17.747	15.379	12.288	8.3697	2.641	-4.5112	-12.888	-20.419	-29.435	-39.91	-50.1	-61.267	-72.213	-80.59	-89.473	-97.512	-104.52	-110.77	-114.96	-120.15	-122.38	-125.73	-128.52	-131.26	-134.25	-136.97	-140.46	-141.6	-142.3	-141.11	-141.01	-141.82	-145.2	-148.24	-149.08	-150.37	-151.59	-153.86	-155.06	-156.48	-158.08	-159.72	-163.03	-163.33	-165.55	-164.53	-164.97	-165.49	-166.02	-167.14	-167.81	-169.38	-169.72	-171.34	-171.6	-172.72	-172.03	-171.1	-172.46	-173.02	-175.4	-177.39	-178.28	-179.27	-180.39	-180.71	-183.56	-184.5	-187.85	-187.35	-186.59	-186.96	-185.17	-183	-179.97	-178.5	-175.85	-173.19	-168.4	-164.88	-161.49	-156.97	-154.43	-152.17	-149.1	-146.06	-144.55	-143.75	-143.95	-142.69	-140.8	-139.9	-140.5	-140.24	-141.76	-141.09	-142.1	-142.54	-142.23	-143.18	-144.22	-143.19	-141.73	-142.79	-143.48	-143.2	-142.06	-141.74	-140.17	-139.36	-139.77	-140.04	-137.2	-136.4	-136.41	-136.52	-135.62	-134.27	-131.22	-131.79	-126.65	-122.77	-119.8	-114.99	-107.9	-99.237	-92.731	-86.663	-80.465	-70.581	-63.118	-57.173	-51.695	-48.351	-45.705	-41.732	-38.849	-37.715	-38.045	-37.186	-35.792	-32.671	-31.907	-31.327	-30.223	-30.711	-30	-27.089	-25.183	-26.082	-26.769	-25.625	-23.447	-22.323	-23.863	-23.641	-26.82	-30.76	-34.813	-38.427	-44.269	-53.144	-60.046	-67.698	-73.836	-82.263	-88.989	-95.106	-100.71	-104.52	-106.87	-108.99	-113.6	-116.51	-117.52	-117.69	-118.3	-120.64	-120.3	-120.48	-120.69	-120.4	-120.68	-121.04	-122.56	NaN	NaN	-122.09	NaN	NaN
-251.23	-215.03	-185.84	-163.65	-149.45	-140.25	-133.05	-127.86	-125.66	-123.59	-122.78	-120.97	-116.16	-109.35	-100.48	-91.485	-81.493	-72.5	-62.5	-52.5	-41.5	-28.5	-17.297	-8.9077	-5.5633	-6.8763	-8.2726	-10.5	-9.5001	-8.5326	-8.5002	-8.4995	-7.634	-13.027	-17.419	-17.624	-18.008	-20.175	-20.768	-23.57	-27.79	-33.19	-40.589	-46.984	-51.282	-52.471	-50.5	-48.5	-42.5	-38.5	-27.764	-32.164	-24.5	-17.5	-16.674	-19.62	-22.569	-32.699	-37.511	-41.721	-43.93	-50.16	664.68	664.86	665.05	665.24	665.28	665.12	664.7	664.27	740.18	815.78	815.78	816.56	785.96	755.85	755.48	755.57	572.76	389.18	388.77	389.11	542.35	693.97	693.9	694.09	709.75	724.62	725.21	725.5	557.12	389.23	389.41	389.5	481.78	572.56	572.35	572.36	588.55	603.89	603.86	603.83	603.54	603.49	603.82	604.2	329.58	45.636	45.603	45.711	46.054	55.018	52.992	50.22	48.623	46.976	46.332	44.366	42.928	42.217	40.843	40.673	42.078	42.93	44.612	46.877	48.115	50.492	52.863	55.24	56.302	57.075	58.364	58.742	50.118	50.49	365.87	366.24	366.6	366.49	366.41	366.6	366.79	366.97	367.16	367.37	367.87	367.88	368.19	368.46	368.57	369.51	369.76	369.2	216.5	64.951	65.632	66.087	65.55	65.429	34.175	36.048	32.37	27.653	23.308	18.161	14.697	12.16	9.6456	7.3701	5.0288	2.7743	0.03183	-4.5209	-11.239	-20.874	-30.155	-39.352	-48.162	-58.744	-68.997	-79.966	-90.542	-99.186	-105.74	-112.23	-116.03	-119.39	-122.79	-124.07	-125.51	-126.05	-128.62	-131.23	-133.4	-136.22	-138.03	-138.77	-138.91	-137.63	-135.62	-136.75	-139.74	-142.73	-144.94	-144.22	-144.32	-144.94	-145.75	-147.67	-150.87	-152.07	-154.42	-156.06	-156.61	-156.75	-155.97	-156.56	-157.24	-157.68	-159.63	-161.66	-161.94	-162.3	-162.23	-162.99	-162.12	-162.62	-161.59	-162.02	-163.67	-165.74	-168.08	-167.3	-168.88	-171.61	-174.94	-178.12	-179.99	-180.01	-181.05	-180.76	-179.96	-180.1	-178.2	-175.49	-172.37	-170.24	-166.77	-163.56	-159.42	-156.34	-154.17	-152.25	-150.83	-148.97	-146.86	-146.28	-145.25	-144.98	-144.24	-142.59	-142.1	-142.63	-143.3	-143.34	-144.82	-144.03	-144.12	-143.57	-143.87	-144.92	-143.85	-143.24	-142.53	-142.48	-142.92	-142.04	-141.14	-140.05	-139.66	-138.4	-138.35	-139.39	-138.65	-137.43	-135.79	-137.65	-137.12	-135.8	-132.31	-130.8	-128.08	-124.35	-121.02	-115.94	-108.65	-102.48	-96.57	-90.852	-83.529	-76.561	-70.005	-66.228	-61.854	-58.237	-55.043	-51.991	-49.038	-46	-45.218	-42.57	-40.707	-38.325	-37.455	-36.287	-34.193	-33.96	-32.804	-30.809	-27.849	-27.805	-27.931	-27.184	-26.78	-25.482	-29.385	-31.097	-34.696	-40.288	-46.495	-51.616	-57.292	-65.671	NaN	NaN	-86.618	-92.354	NaN	NaN	NaN	NaN	-113.83	-116.23	-117.45	-119.89	NaN	NaN	-122.03	NaN	NaN	NaN	NaN	NaN	NaN	NaN	NaN	NaN	NaN	NaN
-228.8	-198.42	-171.04	-152.66	-141.39	-133.35	-126.36	-121.36	-117.37	-114.44	-111.5	-106.5	-98.5	-86.5	-73.5	-59.5	-46.5	-34.5	-21.5	-7.4998	7.5452	20.536	31.526	150.52	150.5	37.397	37.195	35.992	36.173	36.361	37.343	37.949	38.555	36.5	33.5	30.386	363.18	362.97	515.77	667.57	667.5	667.36	651.17	635.98	635.79	-39.604	-39.5	-33.5	-32.739	-20.132	-19.527	-9.8885	-3.0976	2.9129	-2.8987	4.281	2.075	-4.134	-10.343	-15.552	-20.761	-24.575	-30.427	-28.237	-25.218	-10.638	-10.016	-1.2664	663.71	663.87	739.47	815.48	816.25	816.46	785.18	754.57	754.7	755.08	571.63	388.19	388.49	388.76	541.55	693.58	693.77	693.5	709.57	725.15	725.28	724.88	556.9	389.09	389.27	389.22	481.01	571.84	572.03	572.21	588.14	602.97	603.02	603	603.15	603.34	603.53	603.79	328.75	54.722	45.017	45.246	45.138	45.143	54.518	53.895	52.262	51.452	50.417	48.854	48.348	47.007	46.795	46.053	47.217	47.1	48.232	50.417	51.754	53.121	54.499	58.462	211.42	363.62	363.98	364.36	364.74	365.28	365.48	366.07	366.39	366.03	51.212	51.394	51.58	51.77	367.06	367.66	59.845	60.021	58.458	56.64	55.25	53.26	50.458	47.011	40.401	40.68	38.256	34.46	31.282	27.685	23.524	19.861	16.675	12.483	8.4187	4.4726	2.4207	-0.58949	-3.3595	-5.3204	-7.6397	-9.7093	-12.662	-17.767	-25.489	-36.326	-46.91	-56.834	-66.493	-77.054	-86.725	-97.126	-107.35	-116.05	-121.98	-124.89	-126.61	-126.97	-128.02	-127.92	-125.43	-124.88	-126.13	-127.01	-127.18	-126.47	-126.06	-125.52	-123.74	-120.65	-119.29	-118.96	-120.28	-123.59	-124.3	-124.53	-125.27	-124.59	-125	-128.08	-132.74	-135.39	-137.39	-137.25	-138.21	-138.72	-138.96	-139.76	-139.79	-140.22	-143.43	-145.19	-146.34	-145.87	-145.24	-145.69	-144.16	-143.89	-144.23	-144.56	-145.69	-147.54	-149.82	-151.56	-154.88	-157.54	-160.98	-165.25	-168.48	-171.27	-172.45	-173.5	-174.15	-173.32	-171.18	-169.74	-166.46	-163.52	-160.06	-158.35	-155.55	-152.57	-150.68	-149.38	-148.02	-146.92	-145.03	-144.19	-143.17	-142.03	-140.84	-141.68	-141.52	-141.16	-140.59	-141.84	-142.68	-142.32	-141.75	-140.93	-141.82	-142.2	-142.74	-142.02	-141.67	-141.27	-140	-140.72	-140.27	-140.32	-138.51	-137.86	-138.13	-137.9	-137.88	-137.9	-137.22	-136.64	-136.31	-136.69	-135.35	-133.54	-132.15	-129.94	-129.1	-125.39	-122.43	-120.17	-114.61	-107.99	-101.22	-95.296	-89.642	-84.254	-78.746	-74.884	-68.725	-63.296	-60.496	-57.164	-52.778	-49.351	-47.508	NaN	NaN	-40.738	-39.003	-37.963	-36.447	-33.336	-32.255	-29.935	-28.195	-26.845	-26.529	NaN	NaN	-30.605	-34.281	NaN	NaN	NaN	NaN	NaN	NaN	NaN	NaN	NaN	NaN	NaN	NaN	NaN	NaN	NaN	NaN	NaN	NaN	NaN	NaN	NaN	NaN	NaN	NaN	NaN	NaN	NaN	NaN	NaN	NaN	NaN
-200.17	-173.97	-153.79	-139.6	-129.5	-120.56	-112.76	-103.95	-97.143	-90.304	-83.277	-74.089	-62.901	-48.712	-34.524	-20.51	-7.7061	3.0977	13.902	25.705	36.616	302.8	225.99	149.91	57.717	57.552	57.563	56.543	56.532	56.53	57.518	48.497	48.499	48.351	56.973	362.59	362.5	362.5	515.5	667.5	667.5	667.04	650.45	634.94	635.13	635.32	360.28	85.888	85.494	85.101	237.71	5.4996	6.6363	11.826	16.65	22.5	24.35	24.033	21.824	19.953	14.051	9.0326	3.998	1.788	4.579	7.371	8.162	13.407	19.56	26.162	38.194	39.781	815.76	815.29	783.67	753.79	754.18	42.85	42.602	51.87	52.17	51.96	540.99	693.27	693.5	693.51	710.02	725.02	724.47	724.57	556.76	388.87	388.65	388.44	480.51	571.7	571.79	571.58	587.36	602.44	602.63	602.82	603	603.19	603.06	602.87	327.96	54.324	44.701	44.489	44.491	44.815	45.189	45.561	54.566	54.54	53.78	53.279	51.961	50.916	51.159	51.494	51.679	51.862	53.057	52.969	54.339	57.627	57.593	57.552	210.87	363.35	363.6	364.08	364.85	365.09	365.41	365.97	365.88	365.83	366.01	366.46	366.46	366.75	367.26	367.45	53.638	55.131	51.704	49.116	45.924	41.46	37.459	33.705	28.889	25.019	21.46	17.459	15.047	12	8.2709	5.0861	0.91806	-1.854	-4.703	-7.2002	-9.1622	-11.926	-14.699	-17.469	-19.288	-22.403	-25.34	-30.321	-39.871	-49.688	-60.209	-71.24	-81.01	-92.468	-100.43	-110.9	-120.41	-128.35	-133.47	-135.55	-135.49	-133.19	-131.66	-129.37	-124.12	-120.83	-118.15	-113.9	-108.36	-103.98	-99.884	-94.64	-88.803	-82.975	-79.056	-77.631	-79.019	-79.216	-80.321	-82.306	-84.96	-85.874	-86.71	-91.718	-98.592	-101.93	-104.37	-106.1	-106.24	-107.49	-107.94	-110.44	-111.24	-113.08	-115.03	-116.99	-118.29	-118.63	-118.26	-117.11	-116.67	-117.09	-118.75	-120.2	-121.49	-123.45	-126.17	-129.39	-134.83	-140.33	-145.91	-151.35	-155.25	-159.06	-161.85	-163	-163.88	-163.9	-163.09	-161.02	-157.67	-156.02	-152.51	-149.87	-148.2	-148.1	-146.8	-144.5	-143.04	-142.1	-140.63	-139.56	-138.21	-138	-137.54	-137.43	-137.47	-137.61	-137.66	-137.15	-137.46	-137.33	-138.45	-138.13	-138.44	-139.79	-140.63	-140.35	-139.58	-139.93	-140.22	-138.97	-138.88	-138.38	-138.82	-137.54	-137.39	-136.16	-136.43	-134.85	-134.44	-134.14	-133.98	-133.55	-131.97	-131.43	-131.37	-130.94	-129.16	-127.49	-126.95	-125.22	-122.21	-117.78	-112.12	-106.13	-100.45	-96.979	NaN	NaN	-79.434	-74.483	NaN	NaN	NaN	-58.571	NaN	NaN	NaN	NaN	NaN	-42.075	-38.915	-36.528	NaN	NaN	NaN	NaN	NaN	NaN	NaN	NaN	NaN	NaN	NaN	NaN	NaN	NaN	NaN	NaN	NaN	NaN	NaN	NaN	NaN	NaN	NaN	NaN	NaN	NaN	NaN	NaN	NaN	NaN	NaN	NaN	NaN	NaN	NaN	NaN	NaN	NaN	NaN	NaN
-172.19	-152.2	-138.2	-127.2	-118.28	-108.47	-97.5	-84.5	-72.5	-61.496	-50.307	-38.247	-25.253	-11.26	2.7338	15.597	26.5	34.5	317.5	347.5	347.57	347.5	48.502	48.401	48.02	47.641	47.69	47.879	48.068	48.254	48.441	378.27	377.69	377.1	469.19	560.38	560.46	560.25	705.05	848.58	847.99	847.5	801.68	756.88	756.85	756.64	588.5	420.12	419.72	419.5	473.5	526.5	526.5	526.5	496.38	466	37.604	38.216	38.165	38.145	37.126	36.107	35.087	33.964	33.755	32.547	33.83	34.985	37.859	41.901	45.878	47.857	49.23	49.856	50.882	51.28	51.216	51.002	51.257	51.59	509.38	509.14	631.49	754.07	43.441	43.699	43.543	42.895	616.97	617.34	563.3	510.09	510	510.18	617.37	723.23	723.02	722.93	716.11	708.3	708.48	708.67	594.73	480.51	480.3	480.41	274.64	69.015	43.962	44.147	44.33	44.514	44.722	44.688	44.654	44.967	45.208	45.071	54.077	54.441	54.815	55.179	55.497	55.635	55.414	55.609	55.969	178.75	178.75	179.13	271.9	363.16	363.44	364.22	364.71	364.89	365.22	365.33	365.43	365.69	366.28	366.46	297.46	229.88	230.06	230.25	44.825	46.092	41.819	37.588	32.186	26.459	21.46	16.706	11.887	8.1405	4.46	1.87	-0.261	-2.7188	-5.5774	-8.638	-11.41	-14.532	-15.984	-17.166	-19.496	-22.266	-24.036	-26.807	-29.799	-33.237	-36.552	-43.596	-52.139	-62.627	-73.079	-83.438	-94.729	-105.54	-115.04	-125.04	-133.81	-139.96	-143.97	-146.15	-143.91	-141.5	-136.4	-130.95	-124.25	-116.46	-108.86	-99.526	-87.672	-77.693	-68.534	-59.921	-49.82	-39.631	-33.816	-30.361	-31.36	-30.829	-30.494	-34.015	-38.856	-42.011	-44.15	-51.585	-58.291	-62.77	-65.261	-67.017	-69.034	-69.385	-71.723	-74.538	-75.374	-78.64	-80.881	-83.551	-83.977	-84.014	-84.712	-83.58	-83.031	-82.425	-85.965	-87.234	-88.61	-92.08	-94.474	-98.331	-105.44	-112.64	-121.73	-128.04	-134.81	-139.22	-141.44	-145.14	-146.47	-147.92	-147.21	-146.73	-146.33	-144.22	-141.87	-141.68	-141.44	-140.9	-139.11	-137.96	-137.11	-135.8	-134.87	-134.04	-134.69	-133.62	-132.27	-131.71	-132.27	-132.4	-131.84	-131.97	NaN	-133.19	-133.76	-134.39	-136.39	-136.89	-137.58	-137.9	-139.09	-139.78	-139.38	-139.43	NaN	-138.87	-137.89	-136.74	NaN	NaN	-134.09	-132.21	NaN	NaN	NaN	NaN	-127	-126.01	-126.1	-125.4	NaN	NaN	-125.15	-124.1	NaN	NaN	NaN	NaN	NaN	NaN	NaN	NaN	NaN	NaN	NaN	NaN	NaN	NaN	NaN	NaN	NaN	NaN	NaN	NaN	NaN	NaN	NaN	NaN	NaN	NaN	NaN	NaN	NaN	NaN	NaN	NaN	NaN	NaN	NaN	NaN	NaN	NaN	NaN	NaN	NaN	NaN	NaN	NaN	NaN	NaN	NaN	NaN	NaN	NaN	NaN	NaN	NaN	NaN	NaN	NaN	NaN	NaN	NaN	NaN	NaN	NaN
-152.12	-136.01	-124.83	-116.64	-109.5	-99.5	-85.5	-70.5	-55.5	-41.5	-27.5	-14.5	-1.4996	515.5	515.5	515.5	515.5	515.5	54.496	55.504	57.502	57.331	48.101	47.92	47.729	NaN	47.638	47.825	48.012	47.742	NaN	46.592	46.749	46.938	46.986	46.783	757.59	757.21	893.82	1030.5	1030.5	1030.5	954.51	878.5	878.5	878.12	816.74	755.5	755.5	755.5	709.5	664.5	22.381	23.027	29.635	35.247	39.86	42.579	44.239	44.22	45.201	45.181	46.477	45.14	356.93	357.11	280.08	204.06	204.04	203.97	280.85	356.01	48.951	49.064	50.54	50.613	50.409	50.644	464.21	NaN	630.27	630.85	723.46	814.61	815.07	815.02	661.32	509.34	509.71	509.63	570.43	631.68	631.86	632.05	753.89	875.42	875.6	875.78	844.97	815.15	815.33	815.18	585.96	357.88	358.07	358.25	220.43	83.62	83.8	83.99	69.17	54.18	53.81	43.897	44.265	44.632	44.461	44.451	44.727	45.097	45.463	45.829	46.155	45.899	55.879	56.249	178.24	300.24	300.52	301.29	332.79	362.97	363.37	364.04	364.48	364.46	364.45	364.67	365.2	365.91	366.46	366.46	228.49	91.67	91.933	92.517	34.7	36.116	29.885	24.65	18.415	11.459	5.3075	0.48809	-4.1996	-7.668	-10.082	-11.57	-13.124	-15.108	-17.85	-19.13	-21.12	-22.921	-23.106	-24.541	-26.15	-27.604	-30.375	-33.385	-37.541	-40.873	-45.699	-52.864	-62.207	-72.775	-83.368	-94.699	-105.15	-116.22	-127.26	-136.4	-144.17	-149.94	-152.45	-153.72	-151.66	-147.61	-142.23	-133.25	-123.73	-112.24	-99.258	-84.704	-67.918	-51.409	-39.762	-26.148	-11.172	3.798	10.086	15.365	16.919	16.259	15.066	10.698	4.8605	2.5715	-3.0534	-12.377	-21.131	NaN	-28.145	-30.713	-31.707	-32.452	-35.039	-37.008	-38.897	-42.449	-46.27	-49.19	-49.088	-48.66	-48.016	-48.38	-47.156	-47.063	NaN	-48.142	-49.025	-50.378	NaN	NaN	NaN	-70.968	-81.767	NaN	NaN	NaN	-107.39	-112.94	-116.66	-120.59	-123.64	-126.89	-127.77	-127.44	-129.06	-130.8	-131	NaN	-130.88	-131.24	-131.04	-130.34	NaN	NaN	-128.51	-126.92	NaN	NaN	NaN	-125.91	NaN	NaN	NaN	NaN	NaN	-130.14	-132.4	-134.27	NaN	NaN	NaN	-139.9	NaN	NaN	NaN	NaN	NaN	NaN	NaN	NaN	NaN	NaN	NaN	NaN	NaN	NaN	NaN	NaN	NaN	NaN	NaN	NaN	NaN	NaN	NaN	NaN	NaN	NaN	NaN	NaN	NaN	NaN	NaN	NaN	NaN	NaN	NaN	NaN	NaN	NaN	NaN	NaN	NaN	NaN	NaN	NaN	NaN	NaN	NaN	NaN	NaN	NaN	NaN	NaN	NaN	NaN	NaN	NaN	NaN	NaN	NaN	NaN	NaN	NaN	NaN	NaN	NaN	NaN	NaN	NaN	NaN	NaN	NaN	NaN	NaN	NaN	NaN	NaN	NaN	NaN	NaN	NaN	NaN	NaN	NaN	NaN
NaN	NaN	NaN	NaN	-102.5	-93.5	-78.5	-63.5	-49.5	-34.5	-21.5	-7.5005	515.5	515.5	515.5	52.502	53.5	56.497	57.495	48.503	NaN	NaN	NaN	NaN	NaN	NaN	NaN	NaN	NaN	NaN	NaN	666.51	666.51	666.5	712.5	757.17	NaN	756.5	893.5	1030.5	1030.5	NaN	954.46	878.12	877.73	877.5	NaN	NaN	755.34	755.14	708.94	NaN	NaN	663.44	38.251	39.063	43.496	45.929	48.67	50.047	51.431	51.181	NaN	NaN	356.2	356.17	279.16	NaN	NaN	202.67	279.07	355.05	355.18	NaN	NaN	294.81	49.192	50.918	NaN	NaN	630.22	630.74	722.71	814.15	814.19	NaN	660.71	509.08	508.78	508.76	NaN	631.53	631.72	631.4	753.05	875.23	NaN	875.64	844.82	815	814.93	NaN	585.55	357.73	357.91	358.1	NaN	NaN	83.64	83.83	68.98	53.58	53.37	53.561	53.934	43.931	44.1	44.281	NaN	44.747	45.113	45.477	45.418	NaN	45.52	45.727	45.875	46.056	NaN	NaN	47.599	47.621	47.929	NaN	NaN	363.58	363.91	49.558	50.154	59.728	366.27	55.109	55.289	51.638	46.131	32.311	32.49	26.18	18.945	11.71	5.2127	NaN	-7.9104	-13.535	-17.067	-19.714	NaN	-21.53	-22.56	-23.516	-24.492	NaN	NaN	-26.045	-26.541	-27.533	-28.948	-30.561	-33.057	-36.323	-40.54	-44.514	-50.84	NaN	-68.352	-79.219	-91.001	-101.93	NaN	NaN	-134.75	-143.75	-151.53	NaN	NaN	-158.58	-156.76	-152.71	-146.59	-137.72	NaN	-112.87	-97.499	-77.456	-58.94	NaN	NaN	-7.4299	8.2709	23.301	NaN	NaN	46.056	45.008	37.99	NaN	NaN	NaN	17.011	8.9683	NaN	NaN	NaN	NaN	-8.4127	-6.9659	-8.5608	NaN	NaN	-14.547	-17.847	-19.824	NaN	NaN	NaN	-16.189	-15.34	NaN	NaN	NaN	NaN	-3.6767	NaN	NaN	NaN	NaN	-27.357	NaN	NaN	NaN	NaN	NaN	-71.909	-79.782	-88.079	NaN	NaN	NaN	-109.87	NaN	NaN	NaN	NaN	NaN	NaN	NaN	NaN	NaN	NaN	NaN	NaN	NaN	NaN	NaN	NaN	NaN	NaN	NaN	NaN	NaN	NaN	NaN	NaN	NaN	NaN	NaN	NaN	NaN	NaN	NaN	NaN	NaN	NaN	NaN	NaN	NaN	NaN	NaN	NaN	NaN	NaN	NaN	NaN	NaN	NaN	NaN	NaN	NaN	NaN	NaN	NaN	NaN	NaN	NaN	NaN	NaN	NaN	NaN	NaN	NaN	NaN	NaN	NaN	NaN	NaN	NaN	NaN	NaN	NaN	NaN	NaN	NaN	NaN	NaN	NaN	NaN	NaN	NaN	NaN	NaN	NaN	NaN	NaN	NaN	NaN	NaN	NaN	NaN	NaN	NaN	NaN	NaN	NaN	NaN	NaN	NaN	NaN	NaN	NaN	NaN	NaN	NaN	NaN	NaN	NaN	NaN	NaN	NaN	NaN	NaN
NaN	NaN	NaN	NaN	NaN	NaN	NaN	NaN	NaN	NaN	NaN	NaN	NaN	NaN	NaN	NaN	NaN	NaN	NaN	NaN	NaN	NaN	NaN	NaN	NaN	NaN	NaN	NaN	NaN	NaN	NaN	NaN	NaN	NaN	NaN	NaN	NaN	NaN	NaN	NaN	NaN	NaN	NaN	NaN	NaN	NaN	NaN	NaN	NaN	NaN	NaN	NaN	NaN	NaN	36.978	41.408	46.104	NaN	NaN	204.23	NaN	NaN	NaN	NaN	40.302	49.25	NaN	NaN	NaN	NaN	278.15	NaN	NaN	NaN	NaN	294.91	NaN	NaN	NaN	NaN	NaN	49.813	41.22	813.36	NaN	NaN	660.3	508.04	508.14	NaN	NaN	NaN	630.96	630.73	NaN	NaN	NaN	875.44	844.67	NaN	NaN	NaN	NaN	357.58	NaN	NaN	NaN	NaN	83.48	83.66	68.39	53.03	NaN	NaN	53.57	53.75	53.93	NaN	NaN	NaN	54.76	54.895	NaN	NaN	NaN	55.508	177.69	NaN	NaN	NaN	NaN	361.83	NaN	NaN	NaN	NaN	58.919	58.401	58.589	59.129	NaN	NaN	52.353	47.745	40.926	NaN	NaN	18.203	10.004	2.6985	NaN	NaN	NaN	-23.467	-26.287	NaN	NaN	NaN	NaN	-27.122	NaN	NaN	NaN	NaN	-25.541	-26.332	-27.148	NaN	NaN	NaN	-40.333	-45.573	NaN	NaN	NaN	-82.062	-94.374	NaN	NaN	NaN	NaN	-148.11	NaN	NaN	NaN	NaN	NaN	-155.17	-149.23	NaN	NaN	NaN	-104.6	-88.505	NaN	NaN	NaN	NaN	-13.288	NaN	NaN	NaN	NaN	NaN	NaN	NaN	NaN	NaN	NaN	NaN	NaN	NaN	NaN	NaN	NaN	4.4602	NaN	NaN	NaN	NaN	NaN	NaN	NaN	NaN	NaN	NaN	NaN	NaN	NaN	NaN	NaN	NaN	NaN	NaN	NaN	NaN	NaN	NaN	NaN	NaN	NaN	NaN	NaN	NaN	NaN	NaN	NaN	NaN	NaN	NaN	NaN	NaN	NaN	NaN	NaN	NaN	NaN	NaN	NaN	NaN	NaN	NaN	NaN	NaN	NaN	NaN	NaN	NaN	NaN	NaN	NaN	NaN	NaN	NaN	NaN	NaN	NaN	NaN	NaN	NaN	NaN	NaN	NaN	NaN	NaN	NaN	NaN	NaN	NaN	NaN	NaN	NaN	NaN	NaN	NaN	NaN	NaN	NaN	NaN	NaN	NaN	NaN	NaN	NaN	NaN	NaN	NaN	NaN	NaN	NaN	NaN	NaN	NaN	NaN	NaN	NaN	NaN	NaN	NaN	NaN	NaN	NaN	NaN	NaN	NaN	NaN	NaN	NaN	NaN	NaN	NaN	NaN	NaN	NaN	NaN	NaN	NaN	NaN	NaN	NaN	NaN	NaN	NaN	NaN	NaN	NaN	NaN	NaN	NaN	NaN	NaN	NaN	NaN	NaN	NaN	NaN	NaN	NaN	NaN	NaN
NaN	NaN	NaN	NaN	NaN	NaN	NaN	NaN	NaN	NaN	NaN	NaN	NaN	NaN	NaN	NaN	NaN	NaN	NaN	NaN	NaN	NaN	NaN	NaN	NaN	NaN	NaN	NaN	NaN	NaN	NaN	NaN	NaN	NaN	NaN	NaN	NaN	NaN	NaN	NaN	NaN	NaN	NaN	NaN	NaN	NaN	NaN	NaN	NaN	NaN	NaN	NaN	NaN	NaN	NaN	NaN	NaN	NaN	NaN	NaN	NaN	NaN	NaN	NaN	NaN	NaN	NaN	NaN	NaN	NaN	NaN	NaN	NaN	NaN	NaN	NaN	NaN	NaN	NaN	NaN	NaN	NaN	NaN	NaN	NaN	NaN	NaN	NaN	NaN	NaN	NaN	NaN	NaN	NaN	NaN	NaN	NaN	NaN	NaN	NaN	NaN	NaN	NaN	NaN	NaN	NaN	NaN	NaN	NaN	357.19	NaN	NaN	NaN	NaN	NaN	NaN	NaN	NaN	NaN	NaN	NaN	NaN	NaN	NaN	NaN	NaN	NaN	NaN	NaN	NaN	NaN	NaN	NaN	NaN	NaN	NaN	NaN	211.72	NaN	NaN	NaN	NaN	NaN	NaN	NaN	NaN	NaN	NaN	NaN	NaN	NaN	NaN	NaN	NaN	NaN	NaN	NaN	NaN	NaN	NaN	NaN	NaN	NaN	NaN	NaN	-21.622	NaN	NaN	NaN	NaN	NaN	NaN	NaN	NaN	NaN	NaN	NaN	NaN	NaN	NaN	NaN	NaN	NaN	NaN	NaN	NaN	NaN	NaN	NaN	NaN	NaN	NaN	NaN	NaN	NaN	NaN	NaN	NaN	NaN	NaN	NaN	NaN	NaN	NaN	NaN	NaN	NaN	NaN	NaN	NaN	NaN	NaN	NaN	NaN	NaN	NaN	NaN	NaN	NaN	NaN	NaN	NaN	NaN	NaN	NaN	NaN	NaN	NaN	NaN	NaN	NaN	NaN	NaN	NaN	NaN	NaN	NaN	NaN	NaN	NaN	NaN	NaN	NaN	NaN	NaN	NaN	NaN	NaN	NaN	NaN	NaN	NaN	NaN	NaN	NaN	NaN	NaN	NaN	NaN	NaN	NaN	NaN	NaN	NaN	NaN	NaN	NaN	NaN	NaN	NaN	NaN	NaN	NaN	NaN	NaN	NaN	NaN	NaN	NaN	NaN	NaN	NaN	NaN	NaN	NaN	NaN	NaN	NaN	NaN	NaN	NaN	NaN	NaN	NaN	NaN	NaN	NaN	NaN	NaN	NaN	NaN	NaN	NaN	NaN	NaN	NaN	NaN	NaN	NaN	NaN	NaN	NaN	NaN	NaN	NaN	NaN	NaN	NaN	NaN	NaN	NaN	NaN	NaN	NaN	NaN	NaN	NaN	NaN	NaN	NaN	NaN	NaN	NaN	NaN	NaN	NaN	NaN	NaN	NaN	NaN	NaN	NaN	NaN	NaN	NaN	NaN	NaN	NaN	NaN	NaN	NaN	NaN	NaN	NaN	NaN	NaN	NaN	NaN	NaN	NaN
NaN	NaN	NaN	NaN	NaN	NaN	NaN	NaN	NaN	NaN	NaN	NaN	NaN	NaN	NaN	NaN	NaN	NaN	NaN	NaN	NaN	NaN	NaN	NaN	NaN	NaN	NaN	NaN	NaN	NaN	NaN	NaN	NaN	NaN	NaN	NaN	NaN	NaN	NaN	NaN	NaN	NaN	NaN	NaN	NaN	NaN	NaN	NaN	NaN	NaN	NaN	NaN	NaN	NaN	NaN	NaN	NaN	NaN	NaN	NaN	NaN	NaN	NaN	NaN	NaN	NaN	NaN	NaN	NaN	NaN	NaN	NaN	NaN	NaN	NaN	NaN	NaN	NaN	NaN	NaN	NaN	NaN	NaN	NaN	NaN	NaN	NaN	NaN	NaN	NaN	NaN	NaN	NaN	NaN	NaN	NaN	NaN	NaN	NaN	NaN	NaN	NaN	NaN	NaN	NaN	NaN	NaN	NaN	NaN	NaN	NaN	NaN	NaN	NaN	NaN	NaN	NaN	NaN	NaN	NaN	NaN	NaN	NaN	NaN	NaN	NaN	NaN	NaN	NaN	NaN	NaN	NaN	NaN	NaN	NaN	NaN	NaN	NaN	NaN	NaN	NaN	NaN	NaN	NaN	NaN	NaN	NaN	NaN	NaN	NaN	NaN	NaN	NaN	NaN	NaN	NaN	NaN	NaN	NaN	NaN	NaN	NaN	NaN	NaN	NaN	NaN	NaN	NaN	NaN	NaN	NaN	NaN	NaN	NaN	NaN	NaN	NaN	NaN	NaN	NaN	NaN	NaN	NaN	NaN	NaN	NaN	NaN	NaN	NaN	NaN	NaN	NaN	NaN	NaN	NaN	NaN	NaN	NaN	NaN	NaN	NaN	NaN	NaN	NaN	NaN	NaN	NaN	NaN	NaN	NaN	NaN	NaN	NaN	NaN	NaN	NaN	NaN	NaN	NaN	NaN	NaN	NaN	NaN	NaN	NaN	NaN	NaN	NaN	NaN	NaN	NaN	NaN	NaN	NaN	NaN	NaN	NaN	NaN	NaN	NaN	NaN	NaN	NaN	NaN	NaN	NaN	NaN	NaN	NaN	NaN	NaN	NaN	NaN	NaN	NaN	NaN	NaN	NaN	NaN	NaN	NaN	NaN	NaN	NaN	NaN	NaN	NaN	NaN	NaN	NaN	NaN	NaN	NaN	NaN	NaN	NaN	NaN	NaN	NaN	NaN	NaN	NaN	NaN	NaN	NaN	NaN	NaN	NaN	NaN	NaN	NaN	NaN	NaN	NaN	NaN	NaN	NaN	NaN	NaN	NaN	NaN	NaN	NaN	NaN	NaN	NaN	NaN	NaN	NaN	NaN	NaN	NaN	NaN	NaN	NaN	NaN	NaN	NaN	NaN	NaN	NaN	NaN	NaN	NaN	NaN	NaN	NaN	NaN	NaN	NaN	NaN	NaN	NaN	NaN	NaN	NaN	NaN	NaN	NaN	NaN	NaN	NaN	NaN	NaN	NaN	NaN	NaN	NaN	NaN	NaN	NaN	NaN	NaN	NaN	NaN	NaN	NaN	NaN	NaN	NaN
NaN	NaN	NaN	NaN	NaN	NaN	NaN	NaN	NaN	NaN	NaN	NaN	NaN	NaN	NaN	NaN	NaN	NaN	NaN	NaN	NaN	NaN	NaN	NaN	NaN	NaN	NaN	NaN	NaN	NaN	NaN	NaN	NaN	NaN	NaN	NaN	NaN	NaN	NaN	NaN	NaN	NaN	NaN	NaN	NaN	NaN	NaN	NaN	NaN	NaN	NaN	NaN	NaN	NaN	NaN	NaN	NaN	NaN	NaN	NaN	NaN	NaN	NaN	NaN	NaN	NaN	NaN	NaN	NaN	NaN	NaN	NaN	NaN	NaN	NaN	NaN	NaN	NaN	NaN	NaN	NaN	NaN	NaN	NaN	NaN	NaN	NaN	NaN	NaN	NaN	NaN	NaN	NaN	NaN	NaN	NaN	NaN	NaN	NaN	NaN	NaN	NaN	NaN	NaN	NaN	NaN	NaN	NaN	NaN	NaN	NaN	NaN	NaN	NaN	NaN	NaN	NaN	NaN	NaN	NaN	NaN	NaN	NaN	NaN	NaN	NaN	NaN	NaN	NaN	NaN	NaN	NaN	NaN	NaN	NaN	NaN	NaN	NaN	NaN	NaN	NaN	NaN	NaN	NaN	NaN	NaN	NaN	NaN	NaN	NaN	NaN	NaN	NaN	NaN	NaN	NaN	NaN	NaN	NaN	NaN	NaN	NaN	NaN	NaN	NaN	NaN	NaN	NaN	NaN	NaN	NaN	NaN	NaN	NaN	NaN	NaN	NaN	NaN	NaN	NaN	NaN	NaN	NaN	NaN	NaN	NaN	NaN	NaN	NaN	NaN	NaN	NaN	NaN	NaN	NaN	NaN	NaN	NaN	NaN	NaN	NaN	NaN	NaN	NaN	NaN	NaN	NaN	NaN	NaN	NaN	NaN	NaN	NaN	NaN	NaN	NaN	NaN	NaN	NaN	NaN	NaN	NaN	NaN	NaN	NaN	NaN	NaN	NaN	NaN	NaN	NaN	NaN	NaN	NaN	NaN	NaN	NaN	NaN	NaN	NaN	NaN	NaN	NaN	NaN	NaN	NaN	NaN	NaN	NaN	NaN	NaN	NaN	NaN	NaN	NaN	NaN	NaN	NaN	NaN	NaN	NaN	NaN	NaN	NaN	NaN	NaN	NaN	NaN	NaN	NaN	NaN	NaN	NaN	NaN	NaN	NaN	NaN	NaN	NaN	NaN	NaN	NaN	NaN	NaN	NaN	NaN	NaN	NaN	NaN	NaN	NaN	NaN	NaN	NaN	NaN	NaN	NaN	NaN	NaN	NaN	NaN	NaN	NaN	NaN	NaN	NaN	NaN	NaN	NaN	NaN	NaN	NaN	NaN	NaN	NaN	NaN	NaN	NaN	NaN	NaN	NaN	NaN	NaN	NaN	NaN	NaN	NaN	NaN	NaN	NaN	NaN	NaN	NaN	NaN	NaN	NaN	NaN	NaN	NaN	NaN	NaN	NaN	NaN	NaN	NaN	NaN	NaN	NaN	NaN	NaN	NaN	NaN	NaN	NaN	NaN	NaN	NaN	NaN	NaN	NaN
NaN	NaN	NaN	NaN	NaN	NaN	NaN	NaN	NaN	NaN	NaN	NaN	NaN	NaN	NaN	NaN	NaN	NaN	NaN	NaN	NaN	NaN	NaN	NaN	NaN	NaN	NaN	NaN	NaN	NaN	NaN	NaN	NaN	NaN	NaN	NaN	NaN	NaN	NaN	NaN	NaN	NaN	NaN	NaN	NaN	NaN	NaN	NaN	NaN	NaN	NaN	NaN	NaN	NaN	NaN	NaN	NaN	NaN	NaN	NaN	NaN	NaN	NaN	NaN	NaN	NaN	NaN	NaN	NaN	NaN	NaN	NaN	NaN	NaN	NaN	NaN	NaN	NaN	NaN	NaN	NaN	NaN	NaN	NaN	NaN	NaN	NaN	NaN	NaN	NaN	NaN	NaN	NaN	NaN	NaN	NaN	NaN	NaN	NaN	NaN	NaN	NaN	NaN	NaN	NaN	NaN	NaN	NaN	NaN	NaN	NaN	NaN	NaN	NaN	NaN	NaN	NaN	NaN	NaN	NaN	NaN	NaN	NaN	NaN	NaN	NaN	NaN	NaN	NaN	NaN	NaN	NaN	NaN	NaN	NaN	NaN	NaN	NaN	NaN	NaN	NaN	NaN	NaN	NaN	NaN	NaN	NaN	NaN	NaN	NaN	NaN	NaN	NaN	NaN	NaN	NaN	NaN	NaN	NaN	NaN	NaN	NaN	NaN	NaN	NaN	NaN	NaN	NaN	NaN	NaN	NaN	NaN	NaN	NaN	NaN	NaN	NaN	NaN	NaN	NaN	NaN	NaN	NaN	NaN	NaN	NaN	NaN	NaN	NaN	NaN	NaN	NaN	NaN	NaN	NaN	NaN	NaN	NaN	NaN	NaN	NaN	NaN	NaN	NaN	NaN	NaN	NaN	NaN	NaN	NaN	NaN	NaN	NaN	NaN	NaN	NaN	NaN	NaN	NaN	NaN	NaN	NaN	NaN	NaN	NaN	NaN	NaN	NaN	NaN	NaN	NaN	NaN	NaN	NaN	NaN	NaN	NaN	NaN	NaN	NaN	NaN	NaN	NaN	NaN	NaN	NaN	NaN	NaN	NaN	NaN	NaN	NaN	NaN	NaN	NaN	NaN	NaN	NaN	NaN	NaN	NaN	NaN	NaN	NaN	NaN	NaN	NaN	NaN	NaN	NaN	NaN	NaN	NaN	NaN	NaN	NaN	NaN	NaN	NaN	NaN	NaN	NaN	NaN	NaN	NaN	NaN	NaN	NaN	NaN	NaN	NaN	NaN	NaN	NaN	NaN	NaN	NaN	NaN	NaN	NaN	NaN	NaN	NaN	NaN	NaN	NaN	NaN	NaN	NaN	NaN	NaN	NaN	NaN	NaN	NaN	NaN	NaN	NaN	NaN	NaN	NaN	NaN	NaN	NaN	NaN	NaN	NaN	NaN	NaN	NaN	NaN	NaN	NaN	NaN	NaN	NaN	NaN	NaN	NaN	NaN	NaN	NaN	NaN	NaN	NaN	NaN	NaN	NaN	NaN	NaN	NaN	NaN	NaN	NaN	NaN	NaN	NaN	NaN	NaN	NaN
NaN	NaN	NaN	NaN	NaN	NaN	NaN	NaN	NaN	NaN	NaN	NaN	NaN	NaN	NaN	NaN	NaN	NaN	NaN	NaN	NaN	NaN	NaN	NaN	NaN	NaN	NaN	NaN	NaN	NaN	NaN	NaN	NaN	NaN	NaN	NaN	NaN	NaN	NaN	NaN	NaN	NaN	NaN	NaN	NaN	NaN	NaN	NaN	NaN	NaN	NaN	NaN	NaN	NaN	NaN	NaN	NaN	NaN	NaN	NaN	NaN	NaN	NaN	NaN	NaN	NaN	NaN	NaN	NaN	NaN	NaN	NaN	NaN	NaN	NaN	NaN	NaN	NaN	NaN	NaN	NaN	NaN	NaN	NaN	NaN	NaN	NaN	NaN	NaN	NaN	NaN	NaN	NaN	NaN	NaN	NaN	NaN	NaN	NaN	NaN	NaN	NaN	NaN	NaN	NaN	NaN	NaN	NaN	NaN	NaN	NaN	NaN	NaN	NaN	NaN	NaN	NaN	NaN	NaN	NaN	NaN	NaN	NaN	NaN	NaN	NaN	NaN	NaN	NaN	NaN	NaN	NaN	NaN	NaN	NaN	NaN	NaN	NaN	NaN	NaN	NaN	NaN	NaN	NaN	NaN	NaN	NaN	NaN	NaN	NaN	NaN	NaN	NaN	NaN	NaN	NaN	NaN	NaN	NaN	NaN	NaN	NaN	NaN	NaN	NaN	NaN	NaN	NaN	NaN	NaN	NaN	NaN	NaN	NaN	NaN	NaN	NaN	NaN	NaN	NaN	NaN	NaN	NaN	NaN	NaN	NaN	NaN	NaN	NaN	NaN	NaN	NaN	NaN	NaN	NaN	NaN	NaN	NaN	NaN	NaN	NaN	NaN	NaN	NaN	NaN	NaN	NaN	NaN	NaN	NaN	NaN	NaN	NaN	NaN	NaN	NaN	NaN	NaN	NaN	NaN	NaN	NaN	NaN	NaN	NaN	NaN	NaN	NaN	NaN	NaN	NaN	NaN	NaN	NaN	NaN	NaN	NaN	NaN	NaN	NaN	NaN	NaN	NaN	NaN	NaN	NaN	NaN	NaN	NaN	NaN	NaN	NaN	NaN	NaN	NaN	NaN	NaN	NaN	NaN	NaN	NaN	NaN	NaN	NaN	NaN	NaN	NaN	NaN	NaN	NaN	NaN	NaN	NaN	NaN	NaN	NaN	NaN	NaN	NaN	NaN	NaN	NaN	NaN	NaN	NaN	NaN	NaN	NaN	NaN	NaN	NaN	NaN	NaN	NaN	NaN	NaN	NaN	NaN	NaN	NaN	NaN	NaN	NaN	NaN	NaN	NaN	NaN	NaN	NaN	NaN	NaN	NaN	NaN	NaN	NaN	NaN	NaN	NaN	NaN	NaN	NaN	NaN	NaN	NaN	NaN	NaN	NaN	NaN	NaN	NaN	NaN	NaN	NaN	NaN	NaN	NaN	NaN	NaN	NaN	NaN	NaN	NaN	NaN	NaN	NaN	NaN	NaN	NaN	NaN	NaN	NaN	NaN	NaN	NaN	NaN	NaN	NaN	NaN	NaN	NaN
NaN	NaN	NaN	NaN	NaN	NaN	NaN	NaN	NaN	NaN	NaN	NaN	NaN	NaN	NaN	NaN	NaN	NaN	NaN	NaN	NaN	NaN	NaN	NaN	NaN	NaN	NaN	NaN	NaN	NaN	NaN	NaN	NaN	NaN	NaN	NaN	NaN	NaN	NaN	NaN	NaN	NaN	NaN	NaN	NaN	NaN	NaN	NaN	NaN	NaN	NaN	NaN	NaN	NaN	NaN	NaN	NaN	NaN	NaN	NaN	NaN	NaN	NaN	NaN	NaN	NaN	NaN	NaN	NaN	NaN	NaN	NaN	NaN	NaN	NaN	NaN	NaN	NaN	NaN	NaN	NaN	NaN	NaN	NaN	NaN	NaN	NaN	NaN	NaN	NaN	NaN	NaN	NaN	NaN	NaN	NaN	NaN	NaN	NaN	NaN	NaN	NaN	NaN	NaN	NaN	NaN	NaN	NaN	NaN	NaN	NaN	NaN	NaN	NaN	NaN	NaN	NaN	NaN	NaN	NaN	NaN	NaN	NaN	NaN	NaN	NaN	NaN	NaN	NaN	NaN	NaN	NaN	NaN	NaN	NaN	NaN	NaN	NaN	NaN	NaN	NaN	NaN	NaN	NaN	NaN	NaN	NaN	NaN	NaN	NaN	NaN	NaN	NaN	NaN	NaN	NaN	NaN	NaN	NaN	NaN	NaN	NaN	NaN	NaN	NaN	NaN	NaN	NaN	NaN	NaN	NaN	NaN	NaN	NaN	NaN	NaN	NaN	NaN	NaN	NaN	NaN	NaN	NaN	NaN	NaN	NaN	NaN	NaN	NaN	NaN	NaN	NaN	NaN	NaN	NaN	NaN	NaN	NaN	NaN	NaN	NaN	NaN	NaN	NaN	NaN	NaN	NaN	NaN	NaN	NaN	NaN	NaN	NaN	NaN	NaN	NaN	NaN	NaN	NaN	NaN	NaN	NaN	NaN	NaN	NaN	NaN	NaN	NaN	NaN	NaN	NaN	NaN	NaN	NaN	NaN	NaN	NaN	NaN	NaN	NaN	NaN	NaN	NaN	NaN	NaN	NaN	NaN	NaN	NaN	NaN	NaN	NaN	NaN	NaN	NaN	NaN	NaN	NaN	NaN	NaN	NaN	NaN	NaN	NaN	NaN	NaN	NaN	NaN	NaN	NaN	NaN	NaN	NaN	NaN	NaN	NaN	NaN	NaN	NaN	NaN	NaN	NaN	NaN	NaN	NaN	NaN	NaN	NaN	NaN	NaN	NaN	NaN	NaN	NaN	NaN	NaN	NaN	NaN	NaN	NaN	NaN	NaN	NaN	NaN	NaN	NaN	NaN	NaN	NaN	NaN	NaN	NaN	NaN	NaN	NaN	NaN	NaN	NaN	NaN	NaN	NaN	NaN	NaN	NaN	NaN	NaN	NaN	NaN	NaN	NaN	NaN	NaN	NaN	NaN	NaN	NaN	NaN	NaN	NaN	NaN	NaN	NaN	NaN	NaN	NaN	NaN	NaN	NaN	NaN	NaN	NaN	NaN	NaN	NaN	NaN	NaN	NaN	NaN	NaN	NaN
NaN	NaN	NaN	NaN	NaN	NaN	NaN	NaN	NaN	NaN	NaN	NaN	NaN	NaN	NaN	NaN	NaN	NaN	NaN	NaN	NaN	NaN	NaN	NaN	NaN	NaN	NaN	NaN	NaN	NaN	NaN	NaN	NaN	NaN	NaN	NaN	NaN	NaN	NaN	NaN	NaN	NaN	NaN	NaN	NaN	NaN	NaN	NaN	NaN	NaN	NaN	NaN	NaN	NaN	NaN	NaN	NaN	NaN	NaN	NaN	NaN	NaN	NaN	NaN	NaN	NaN	NaN	NaN	NaN	NaN	NaN	NaN	NaN	NaN	NaN	NaN	NaN	NaN	NaN	NaN	NaN	NaN	NaN	NaN	NaN	NaN	NaN	NaN	NaN	NaN	NaN	NaN	NaN	NaN	NaN	NaN	NaN	NaN	NaN	NaN	NaN	NaN	NaN	NaN	NaN	NaN	NaN	NaN	NaN	NaN	NaN	NaN	NaN	NaN	NaN	NaN	NaN	NaN	NaN	NaN	NaN	NaN	NaN	NaN	NaN	NaN	NaN	NaN	NaN	NaN	NaN	NaN	NaN	NaN	NaN	NaN	NaN	NaN	NaN	NaN	NaN	NaN	NaN	NaN	NaN	NaN	NaN	NaN	NaN	NaN	NaN	NaN	NaN	NaN	NaN	NaN	NaN	NaN	NaN	NaN	NaN	NaN	NaN	NaN	NaN	NaN	NaN	NaN	NaN	NaN	NaN	NaN	NaN	NaN	NaN	NaN	NaN	NaN	NaN	NaN	NaN	NaN	NaN	NaN	NaN	NaN	NaN	NaN	NaN	NaN	NaN	NaN	NaN	NaN	NaN	NaN	NaN	NaN	NaN	NaN	NaN	NaN	NaN	NaN	NaN	NaN	NaN	NaN	NaN	NaN	NaN	NaN	NaN	NaN	NaN	NaN	NaN	NaN	NaN	NaN	NaN	NaN	NaN	NaN	NaN	NaN	NaN	NaN	NaN	NaN	NaN	NaN	NaN	NaN	NaN	NaN	NaN	NaN	NaN	NaN	NaN	NaN	NaN	NaN	NaN	NaN	NaN	NaN	NaN	NaN	NaN	NaN	NaN	NaN	NaN	NaN	NaN	NaN	NaN	NaN	NaN	NaN	NaN	NaN	NaN	NaN	NaN	NaN	NaN	NaN	NaN	NaN	NaN	NaN	NaN	NaN	NaN	NaN	NaN	NaN	NaN	NaN	NaN	NaN	NaN	NaN	NaN	NaN	NaN	NaN	NaN	NaN	NaN	NaN	NaN	NaN	NaN	NaN	NaN	NaN	NaN	NaN	NaN	NaN	NaN	NaN	NaN	NaN	NaN	NaN	NaN	NaN	NaN	NaN	NaN	NaN	NaN	NaN	NaN	NaN	NaN	NaN	NaN	NaN	NaN	NaN	NaN	NaN	NaN	NaN	NaN	NaN	NaN	NaN	NaN	NaN	NaN	NaN	NaN	NaN	NaN	NaN	NaN	NaN	NaN	NaN	NaN	NaN	NaN	NaN	NaN	NaN	NaN	NaN	NaN	NaN	NaN	NaN	NaN	NaN
