-2250.1	-2240.9	-2238.8	-2238.8	-2238.6	-2233.3	-2223.5	-2227.7	-2222.9	-2219	-2215.4	-2213.9	-2210.6	-2208	-2195.1	-2201	-2187.9	-2177.2	-2168.3	-2159.7	-2149	-2138	-2126.1	-2109.2	-2082.2	-2084.6	-2058.9	-2038.4	-2011.7	-1983.3	-1955	-1931.6	-1910.7	-1891.7	-1876.3	-1863.1	-1850.8	-1839.5	-1826.3	-1813.1	-1802.3	-1793.7	-1793.2	-1749.9	-1702.7	-1657.4	-1616.1	-1612	-1578.8	-1548.6	-1512	-1470.2	-1415.2	-1403.4	-1328.9	-1278.1	-1244.3	-1194.5	-1185.3	-1109	-1063.3	-1016.4	-967.95	-955.35	-941.43	-923.01	-886.58	-860.77	-843.55	-818.37	-793.11	-766.55	-746.18	-727.82	-706.24	-677.82	-649.32	-624.33	-600.41	-579.16	-559.59	-540.87	-521.74	-504.35	-487.66	-471.07	-451.67	-436.61	-420.54	-404.9	-383.57	-364.6	-349.22	-333.31	-317.83	-302.5	-287.27	-270.69	-255.09	-240.89	-227.54	-215.16	-199.22	-182.29	-166.83	-152.61	-139.31	-128.03	-116.26	-104.49	-94.475	-86.069	-75.612	-74.685	-68.326	-64.037	-57.685	-50.018	-45.422	-50.314	-51.078	-49.225	-48.061	-45.189	-41.409	-38.606	-37.777	-36.662	-36.668	-37.66	-38.332	-39.519	-40.426	-41.738	-43.484	-44.969	-46.859	-50.938	-52.715	-53.294	-54.688	-52.503	-48.675	-50.757	-53.729	-56.094	-59.341	-61.565	-64.357	-67.431	-59.633	-58.599	-60.669	-59.195	-54.607	-55.612	-59.443	-55.818	-54.476	-49.97	-53.598	-56.241	-57.588	-57.036	-57.914	-57.355	-56.226	-56.261	-53.088	-56.133	-57.674	-60.651	-63.38	-66.195	-68.047	-72.582	-75.698	-77.366	-81.108	-83.423	-86.426	-89.564	-91.186	-93.927	-97.115	-98.251	-99.756	-102.19	-104.55	-105.69	-107.32	-110.66	-112.43	-97.829	-91.686	-95.171	-95.375	-96.058	-98.99	-101.25	-100.47	-102.21	-104.17	-97.528	-88.494	-87.398	-90.262	-90.945	-89.659	-91.887	-88.583	-93.285	-111.71	-111.86	-112.78	-115.81	-132.27	-157.59	-209.29	-207.88	-168.76	-159.34	-140.13	-117.69	-117.24	-109.18	-109.01	-88.996	-88.558	-91.081	-53.73	-52.116	-53.324	-57.075	-50.969	-53.753	-54.126	-57.399	-69.285	-81.112	-86.406	-92.538	-92.431	-100.52	-100.8	-104.79	-106.84	-110.28	-117.51	-121.12	-123.3	-124.46	-125.47	-125.47	-147.2	-148.35	-149.5	-148.51	-146.71	-137.14	-124.65	-123.43	-122.95	-123.78	-124.22	-124.11	-123.52	-123.56	-124.01	-122.51	-121.96	-122.44	-119.97	-120.01	-120.86	-120.92	-120.67	-119.33	-118.64	-118.57	-118.36	-107.3	-99.931	-100.7	-101.49	-101.28	-98.718	-95.381	-85.772	-74.947	-73.814	-73.659	-75.143	-77.1	-77.451	-77.989	-77.444	-75.66	-74.963	-75.611	-75.338	-74.698	-74.972	-75.062	-75.655	-75.496	-76.754	-77.337	-78.918	-78.063	-76.597	-76.944	-78.927	-80.179	-81.431	-82.492	-85.114	-87.174	-89.841	-92.125	-94.679	-97.276	-100.61	-102.61	-104.18	-106.63	-109.24	-111.61	-112.83	-113.24	-114.39	-116.47	-118.25	-119.13	-121.17	-122.29	-124.57	-124.29	-126.84	-130.9	-135.19	-139.81	-142.84	-146.95	-153.61	-161.71	-164.68	-165.58	-165.35	-166.08	-165.88	-166.68	-168.78	-170.93	-174.28	-177.12	-179.91	-181.71	-183.51	-184.31
-2232.9	-2225.6	-2223.2	-2222.7	-2221.2	-2215	-2212.5	-2207.9	-2204.3	-2199.7	-2196.6	-2194.6	-2192.4	-2182.9	-2190.1	-2173.5	-2164.1	-2156.1	-2148	-2138.8	-2129.7	-2118.2	-2106.8	-2090.2	-2080.3	-2058.2	-2040.4	-2015.6	-1987.7	-1958.6	-1929.4	-1915.5	-1897	-1880.7	-1867.4	-1854.7	-1843.6	-1832.5	-1817.8	-1799.4	-1797.9	-1784.3	-1760.3	-1723.9	-1675.9	-1627	-1622.3	-1587.8	-1562.1	-1531.3	-1487.1	-1430.4	-1422.3	-1364	-1308.4	-1259.2	-1209.8	-1199.9	-1134.6	-1070.7	-1003.6	-976.6	-963.98	-916.38	-900.4	-874.85	-846.07	-815.62	-784.29	-754.52	-728.65	-713	-698.59	-682.73	-670.59	-652.67	-632.19	-612.65	-593.32	-573.01	-554.61	-535.24	-517.46	-500.77	-484.53	-466.35	-446.68	-428.58	-411.58	-395.14	-368.4	-351.83	-336.2	-320.37	-303.22	-287.98	-273.3	-257.18	-240.67	-226.71	-219.7	-202.78	-183.98	-163.93	-158.49	-144.97	-135.4	-124.15	-113.13	-101.07	-90.472	-82.416	-73.403	-66.76	-76.831	-72.301	-66.861	-62.351	-60.347	-60.23	-61.858	-67.019	-65.099	-62.109	-56.132	-51.744	-51.5	-51.667	-52.187	-53.062	-54.383	-54.952	-56.047	-57.224	-58.774	-61.04	-62.767	-64.631	-66.61	-68.88	-70.102	-69.394	-70.229	-69.868	-69.36	-68.192	-66.295	-67.071	-66.803	-61.097	-64.091	-63.652	-64.064	-59.017	-54.902	-51.982	-48.388	-50.213	-50.813	-46.191	-46.048	-47.765	-46.467	-44.408	-47.428	-49.565	-46.619	-45.391	-45.883	-45.101	-46.089	-49.172	-50.805	-53.717	-57.93	-63.065	-66.908	-69.489	-71.632	-75.201	-80.407	-92.492	-94.844	-96.882	-99.881	-102.94	-104.28	-97.618	-97.14	-100.02	-101.64	-104.29	-102.92	-98.492	-100.15	-101.81	-105.78	-106.96	-106.43	-109.88	-112.62	-113.09	-102.99	-93.371	-95.728	-95.997	-95.917	-97.943	-99.803	-81.695	-82.703	-84.353	-84.837	-85.891	-105.79	-108.2	-109.79	-200.47	-201.37	-204.15	-202.54	-201.43	-203.1	-128.21	-111.2	-111.5	-108.65	-113.51	-112.81	-113.12	-87.69	-86.599	-85.239	-51.61	-51.166	-50.101	-51.292	-52.975	-64.741	-75.11	-78.941	-85.983	-91.36	-94.314	-98.681	-98.666	-102.22	-103.56	-112.91	-120.56	-122.54	-122.01	-122.28	-123.08	-124.01	-124.17	-131.26	-124.46	-123.03	-122.59	-122.73	-114.74	-111.85	-111.81	-112.68	-113.55	-112.48	-112.81	-112.75	-113.37	-112.69	-112.12	-112.98	-113.35	-112.01	-112.23	-111.91	-111.77	-111.39	-110.91	-108.87	-99.623	-99.561	-99.926	-99.645	-98.008	-96.683	-90.954	-79.79	-72.086	-71.249	-72.339	-73.815	-76.656	-79.43	-79.68	-79.959	-79.176	-77.094	-76.711	-76.131	-74.975	-74.569	-74.556	-74.571	-75.373	-76.452	-76.696	-75.822	-75.645	-75.365	-75.604	-76.705	-77.882	-79.421	-81.821	-83.094	-86.112	-89.092	-91.395	-93.335	-95.981	-98.22	-100.05	-101.78	-104.03	-106.81	-108.62	-110.7	-111.3	-112.51	-113.82	-116.14	-117.1	-118.9	-119.98	-121.5	-123.63	-124.23	-128.39	-133.86	-138.48	-141.57	-146.76	-152.47	-161.62	-165.57	-166.6	-166.61	-166.43	-167.46	-168.45	-169.99	-172.02	-175.47	-178.36	-181.27	-184.08	-184.89	-185.85
-2225	-2215.5	-2214	-2211.8	-2207.6	-2200.4	-2208	-2196.5	-2190	-2184.2	-2179.1	-2178	-2171.1	-2179.3	-2164.9	-2154.7	-2146.3	-2139.5	-2131.8	-2123.1	-2112.4	-2101.2	-2092.1	-2075	-2063.7	-2043.3	-2022	-1997.6	-1966	-1929.3	-1931.6	-1904.1	-1888.1	-1874.1	-1862.2	-1851.1	-1841.3	-1832.4	-1816.6	-1802.7	-1787.1	-1770.9	-1744	-1712.8	-1668.6	-1633.4	-1604.2	-1584.6	-1554.4	-1524	-1480.3	-1437.9	-1392.2	-1346.3	-1288.5	-1226.2	-1215.3	-1154.5	-1097.6	-1032.6	-990.44	-950.09	-922.64	-895.74	-865.68	-837.99	-811.44	-783.8	-748.2	-725.83	-703.77	-682.83	-669.4	-658.46	-652.61	-635.44	-617.53	-599.92	-583.45	-565.55	-543.88	-525.69	-508.2	-490	-474.16	-456.14	-438.65	-421.63	-404.13	-386.97	-382.82	-366.8	-349.29	-334	-318.05	-301.09	-286.02	-272.01	-256.21	-240.99	-210.58	-197.12	-175.8	-152	-139.92	-142.89	-134.47	-124.12	-115.84	-108.31	-115.63	-108.49	-102.18	-95.893	-88.982	-84.65	-80.197	-76.952	-74.682	-73.087	-70.281	-68.613	-74.234	-70.926	-64.941	-63.511	-63.54	-64.508	-65.209	-64.753	-65.636	-66.775	-67.627	-69.306	-71.095	-72.735	-73.669	-74.581	-76.254	-78.154	-80.107	-80.62	-82.883	-84.497	-81.86	-76.548	-72.932	-70.297	-66.431	-63.963	-63.075	-64.362	-61.34	-57.889	-54.005	-49.59	-46.116	-44.894	-43.966	-40.925	-41.267	-38.646	-35.083	-33.831	-34.226	-32.134	-35.219	-35.112	-37.482	-34.734	-34.066	-35.008	-38.721	-40.201	-44.835	-54.135	-57.906	-60.382	-63.287	-65.187	-68.537	-79.775	-83.694	-86.269	-89.49	-94.72	-96.817	-87.14	-90.202	-93.106	-95.323	-97.425	-100.51	-103.67	-106.03	-108.2	-109.53	-112.56	-114.41	-107.99	-106.64	-98.429	-98.911	-100.47	-101.64	-104.19	-94.738	-94.478	-93.772	-88.213	-87.937	-88.602	-91.101	-74.319	-75.91	-77.59	-87.226	-87.552	-93.737	-94.922	-104.09	-103.63	-102.71	-104.61	-106.03	-104.67	-97.148	-102.97	-107.7	-107.56	-105.97	-92.259	-78.16	-79.316	-80.386	-80.922	-63.387	-62.294	-64.595	-70.869	-74.052	-76.76	-82.815	-86.648	-88.42	-93.333	-94.161	-96.823	-103.83	-115.88	-116.36	-118.29	-117.53	-116.84	-119.43	-111.83	-118.14	-109.93	-107.83	-108.47	-106.82	-98.904	-100.71	-101.57	-100.42	-101.54	-102.06	-102.08	-102.26	-101.1	-101.41	-101.6	-100.46	-99.626	-99.579	-98.923	-99.217	-98.47	-99.579	-98.699	-99.183	-99.127	-95.647	-92.771	-91.399	-89.013	-86.55	-78.233	-69.791	-65.495	-67.052	-68.395	-71.813	-76.104	-80.099	-82.001	-80.976	-79.957	-78.321	-77.478	-76.362	-75.815	-75.169	-74.761	-74.465	-74.139	-75.079	-74.247	-73.902	-73.935	-73.166	-74.355	-75.653	-76.29	-79.107	-80.645	-82.539	-85.418	-89.423	-90.35	-91.591	-94.161	-96.709	-97.785	-99.506	-101.92	-104.67	-106.41	-108.51	-108.49	-110.69	-111.89	-113.49	-115.85	-116.44	-118.01	-119.91	-120.68	-123.66	-127.75	-133.14	-137.97	-141.31	-145.38	-152.09	-160.43	-164.5	-165.45	-165.78	-166.81	-168.05	-170.22	-170.77	-173.66	-176.72	-179.56	-182.81	-185.76	-185.42	-187.57
-2223.5	-2213.1	-2209.8	-2206.7	-2201.4	-2197.9	-2192.3	-2185.7	-2178.2	-2171.9	-2167.3	-2160.3	-2168.2	-2157.9	-2148.4	-2140.2	-2134.2	-2128.1	-2119.8	-2111.6	-2101.2	-2088.2	-2077.4	-2069.6	-2048.8	-2028.6	-2007.6	-1985.6	-1954.3	-1930.2	-1911.2	-1900.2	-1884.6	-1872.9	-1861	-1851.4	-1841.6	-1831.9	-1819.3	-1810.3	-1789.3	-1767.4	-1739.4	-1705.7	-1666.3	-1640.3	-1612.3	-1584.2	-1552.2	-1521	-1485.5	-1443.6	-1391.9	-1334	-1275.8	-1230.1	-1180.6	-1119.8	-1060.3	-1003.6	-989.19	-934.81	-897.89	-864.93	-835	-807.66	-783.22	-758.18	-731.49	-718.52	-702.06	-688.59	-674.34	-655.46	-638.24	-620.85	-604.13	-587.32	-570.39	-550.82	-530.34	-512.72	-495.76	-476.63	-459.19	-442.42	-423.9	-406.84	-391.09	-373.36	-365.45	-350.17	-333.46	-319.7	-310.26	-294.67	-278.98	-265.96	-251.3	-237.1	-224.79	-211.99	-198.98	-168.92	-158.49	-147.7	-137.14	-129.17	-121	-112.95	-112.81	-109.5	-104.87	-98.847	-93.703	-90.616	-87.852	-85.992	-82.969	-81.93	-80.54	-79.708	-80.328	-78.656	-76.688	-76.014	-75.36	-75.855	-75.989	-75.743	-76.196	-77.8	-79.524	-80.738	-82.029	-83.262	-82.873	-84.279	-84.538	-86.476	-87.406	-86.528	-85.222	-84.549	-84.197	-80.025	-74.228	-73.038	-68.445	-65.284	-63.113	-58.434	-56.37	-53.375	-53.653	-50.031	-45.106	-41.407	-40.195	-38.48	-32.197	-32.231	-27.857	-24.325	-22.463	-23.794	-24.804	-27.008	-22.47	-25.134	-28.321	-28.934	-29.161	-32.858	-35.379	-37.325	-45.76	-52.368	-62.29	-64.157	-66.41	-69.668	-73.734	-75.168	-77.902	-80.806	-100.79	-99.227	-97.95	-110.73	-95.273	-97.16	-98.99	-102.13	-104.95	-107	-108.44	-111.14	-114.34	-97.201	-99.11	-101.35	-103.75	-104.95	-96.925	-86.191	-88.654	-90.207	-90.716	-93.33	-94.758	-85.283	-81.119	-77.831	-79.218	-80.395	-82.467	-84.999	-85.706	-81.361	-75.276	-72.527	-72.165	-72.054	-75.309	-76.009	-86.622	-85.362	-94.916	-96.593	-97.066	-79.243	-72.604	-74.322	-73.826	-69.632	-71.067	-71.17	-65.336	-65.045	-67.887	-70.482	-72.109	-73.437	-78.253	-77.56	-76.735	-87.085	-87.596	-86.398	-88.612	-88.933	-91.065	-90.479	-89.089	-91.537	-92.323	-90.891	-92.165	-92.217	-94.597	-94.168	-86.957	-88.079	-89.849	-89.149	-88.732	-88.464	-88.441	-87.49	-87.22	-87.675	-89.083	-87.215	-86.75	-87.995	-88.51	-87.836	-88.302	-89.982	-90.706	-89.377	-85.634	-78.956	-60.635	-47.403	-45.027	-42.654	-39.322	-38.041	-38.529	-50.281	-65.656	-74.35	-79.891	-82.557	-81.125	-80.567	-78.594	-78.055	-77.189	-76.462	-75.272	-73.885	-73.006	-74.026	-72.681	-71.453	-72.342	-73.216	-72.569	-73.599	-74.484	-75.281	-78.129	-80.185	-82.841	-85.462	-87.211	-88.6	-89.857	-92.428	-94.972	-96.639	-97.472	-100.02	-102.79	-104.24	-106.52	-107.69	-108.9	-110.21	-111.92	-114.28	-114.91	-116.77	-118.58	-121.51	-123.52	-127.95	-133.46	-138.26	-143.66	-144.91	-151.75	-158.1	-162.18	-165.29	-165.99	-166.12	-168.27	-169.68	-171.5	-174.24	-176.06	-179.88	-184.3	-186.43	-188.09	-188.21
-2211.5	-2201	-2197.5	-2193	-2187.6	-2184.1	-2177.6	-2173.3	-2166.6	-2159.9	-2155	-2156.2	-2152.4	-2147.6	-2141.7	-2136.8	-2130.8	-2124.5	-2116	-2106.6	-2096.2	-2083.5	-2068	-2056.6	-2039.1	-2021.2	-2003.4	-1982.5	-1955.7	-1934.7	-1912.9	-1901.8	-1888.6	-1878.3	-1867	-1856.8	-1846.5	-1833.2	-1814	-1811.7	-1794.5	-1764.2	-1735	-1695.8	-1649.5	-1645.2	-1613.7	-1582.8	-1551.4	-1520.3	-1491.8	-1448.6	-1395.6	-1322.3	-1245.2	-1233.3	-1170.2	-1099.3	-1021.3	-1003	-956.6	-913.43	-873.34	-841.72	-813.13	-782.99	-764.8	-746.27	-728.98	-713.5	-702.81	-686.23	-669.55	-652.72	-634.83	-615.56	-596.44	-576.63	-556.13	-537.73	-518.03	-498.05	-481.41	-463.63	-452.24	-432.79	-415.77	-398.03	-379.94	-363.56	-346.38	-330.13	-314.49	-298.05	-288.46	-274.05	-259.81	-247.06	-235.43	-223.57	-211.12	-199.38	-183.71	-168.44	-157.11	-148.46	-140.27	-132.06	-124.65	-118.09	-111.84	-104.99	-98.411	-93.443	-88.425	-86.56	-84.56	-86.463	-89.835	-90.657	-89.676	-89.382	-88.005	-86.524	-86.702	-86.233	-85.693	-84.35	-84.747	-84.52	-83.408	-85.226	-87.643	-88.349	-88.191	-88.513	-89.87	-88.832	-89.561	-89.698	-89.188	-88.337	-82.568	-81.127	-81.28	-77.729	-74.992	-73.15	-70.249	-65.474	-60.958	-52.467	-47.782	-44.517	-47.845	-48.46	-44.82	-40.489	-36.652	-33.925	-29.05	-21.967	-22.202	-17.312	-13.315	-14.019	-15.46	-15.791	-17.382	-17.062	-20.419	-23.737	-23.068	-23.105	-27.004	-30.603	-40.028	-42.583	-50.47	-54.939	-58.611	-62.532	-69.513	-85.218	-85.758	-88.761	-90.536	-93.347	-97.031	-99.152	-102.33	-104.72	-107.53	-109.77	-112.76	-114.87	-105.52	-104.82	-93.73	-95.4	-96.748	-99.537	-95.154	-93.182	-88.289	-89.56	-91.561	-93.424	-85.457	-85.571	-83.06	-78.212	-79.529	-81.654	-84.38	-85.955	-86.409	-88.81	-79.884	-77.931	-75.738	-72.096	-75.084	-76.524	-75.415	-77.527	-79.165	-74.372	-62.036	-61.965	-64.697	-64.464	-64.416	-64.491	-63.093	-58.975	-59.185	-60.086	-61.816	-60.414	-61.436	-62.138	-63.851	-64.109	-63.555	-66.063	-67.132	-65.953	-60.503	-59.793	-66.212	-53.838	-52.075	-53.675	-66.479	-63.17	-64.027	-65.802	-65.092	-66.563	-67.156	-74.02	-75.195	-75.592	-76.508	-78.561	-76.915	-74.48	-73.819	-73.371	-71.594	-72.896	-71.982	-74.421	-73.561	-72.693	-75.349	-77.507	-76.105	-77.277	-77.337	-78.823	-80.088	-67.867	-24.187	-21.181	-23.102	-22.987	-22.477	-24.4	-24.171	-36.177	-62.139	-74.004	-79.907	-80.618	-80.488	-79.847	-78.122	-76.648	-76.98	-77.622	-76.408	-73.843	-74.313	-74.636	-72.805	-71.84	-71.626	-72.651	-73.884	-73.779	-74.859	-75.405	-77.647	-80.91	-83.654	-85.615	-86.281	-87.613	-89.979	-92.64	-94.804	-95.731	-97.88	-100.33	-101.5	-103.94	-105.5	-106.97	-109.09	-110.38	-112.11	-114.57	-115.79	-117.48	-120.07	-121.15	-125.38	-128.89	-133.43	-138.46	-143.03	-146.26	-150.06	-153.73	-157.9	-162.95	-163.56	-164.89	-165.58	-166.93	-168.84	-170.66	-173.47	-176.23	-180.55	-183.89	-184.71	-185.57
-2202.2	-2195.5	-2189.6	-2185.1	-2177.8	-2174.2	-2169.6	-2169.1	-2163.6	-2152.8	-2145.9	-2146.1	-2149.1	-2144.9	-2140.7	-2136.7	-2131.6	-2125.5	-2118.1	-2108.6	-2097.1	-2083.4	-2069.2	-2049.9	-2035.7	-2020.1	-2005.6	-1987.9	-1959.1	-1938.1	-1919.5	-1911.8	-1898.9	-1888.6	-1875.5	-1864.3	-1852.7	-1833.7	-1817.5	-1821.3	-1786.1	-1756.8	-1726.6	-1687	-1651.1	-1622.1	-1606.3	-1577.8	-1548.3	-1517.9	-1492.4	-1451	-1393.1	-1311.2	-1245.5	-1232.2	-1155.4	-1086.2	-1037.4	-996.13	-941.29	-890.67	-850.18	-820.43	-789.8	-760.13	-745.81	-729.63	-714.09	-698.2	-687.04	-673.19	-659.42	-640.94	-624.09	-601.58	-581.84	-559.99	-538.26	-519.14	-499.37	-481.82	-461.48	-442.68	-422.76	-408.93	-390.38	-372.13	-354.49	-341.83	-326.21	-309.84	-293.25	-277.51	-262.62	-249.48	-237.18	-225.83	-213.36	-202.41	-193.11	-179.22	-167.89	-158.25	-149.52	-141.75	-134	-127.73	-121.8	-115.93	-111.61	-102.75	-99.783	-91.062	-87.809	-85.482	-85.348	-83.703	-84.216	-82.689	-82.787	-83.393	-82.759	-81.519	-80.866	-80.944	-83.169	-83.949	-84.189	-85.289	-85.064	-83.742	-85.509	-88.506	-86.551	-87.465	-88.477	-90.092	-91.41	-91.431	-91.36	-89.65	-86.194	-78.299	-78.951	-78.906	-73.117	-72.438	-71.475	-68.051	-64.986	-56.071	-44.349	-42.453	-36.852	-38.301	-36.18	-35.796	-33.939	-34.169	-31.274	-26.903	-21.122	-17.512	-17.77	-17.248	-17.086	-19.283	-19.217	-20.355	-19.745	-21.934	-24.631	-25.642	-26.128	-27.515	-29.427	-39.236	-43.973	-48.445	-51.541	-55.262	-61.866	-68.839	-77.171	-78.382	-81.128	-85.516	-89.135	-91.996	-97.474	-101.11	-103.21	-104.74	-106.77	-105.06	-98.996	-99.085	-101.76	-92.367	-88.876	-86.458	-82.509	-83.762	-78.972	-78.89	-79.785	-73.158	-75.071	-75.409	-70.568	-69.604	-71.979	-72.844	-74.492	-76.393	-77.793	-78.166	-71.84	-73.598	-75.024	-76.686	-77.295	-79.677	-70.028	-68.302	-67.952	-61.421	-62.281	-62.557	-64.703	-65.258	-64.453	-65.345	-48.264	-49.228	-51.049	-51.503	-44.8	-40.502	-40.059	-42.238	-42.783	-30.591	-30.784	-30.672	-32.452	-34.491	-33.237	-35.25	-37.514	-84.101	-82.6	-68.912	-40.375	-41.948	-40.402	-40.958	-46.728	-46.221	-47.42	-54.516	-56.193	-60.268	-61.97	-60.865	-61.781	-61.73	-56.27	-55.246	-54.821	-55.684	-55.936	-52.418	-54.811	-56.544	-55.972	-56.826	-60.977	-62.754	-64.207	-69.187	-71.02	-71.841	-70.858	-43.236	-36.538	-71.897	-44.557	-18.894	-19.736	-47.949	-61.748	-73.201	-77.64	-78.017	-75.716	-75.174	-74.975	-75.542	-75.888	-75.969	-76.21	-75.892	-75.318	-74.385	-73.79	-73.844	-72.599	-72.837	-72.886	-74.099	-74.893	-75.458	-76.374	-79.787	-83.816	-85.791	-85.816	-86.714	-89.84	-92.493	-93.952	-96.154	-98.486	-100.9	-101.91	-103.95	-105.6	-107.09	-109.34	-110.61	-111.93	-114.79	-117.28	-119.04	-119.2	-122.23	-126.69	-129.72	-133.34	-138.39	-142.17	-145.69	-148.4	-152.15	-151.37	-156.62	-160.83	-160.51	-161.24	-163.89	-165.24	-167.02	-169.84	-171.63	-175.86	-178.23	-181.03	-181.88
-2205.2	-2192.5	-2188.5	-2183.8	-2176.2	-2164.3	-2176.1	-2168.2	-2165.6	-2155.8	-2143.9	-2152.6	-2150.2	-2150.6	-2147.1	-2142.2	-2137.2	-2132	-2125.5	-2117.1	-2106.6	-2087	-2069.7	-2051.2	-2040.5	-2026.6	-2013.9	-1998.1	-1973.1	-1940.2	-1943.5	-1921.9	-1912.3	-1902.3	-1887.4	-1874.3	-1858.6	-1835.1	-1815.5	-1799.9	-1781.4	-1747.2	-1717.9	-1681.8	-1646.7	-1616.5	-1597.2	-1571.3	-1546.2	-1516	-1487.9	-1447.5	-1387.6	-1311.7	-1241.4	-1197.2	-1146.5	-1079.5	-1035.4	-978.39	-923.74	-871.03	-828.18	-797.64	-771.27	-735.95	-723.63	-710.82	-693.36	-675.94	-665.45	-653.87	-637.74	-623.87	-606.97	-582.37	-561.17	-538.68	-516.15	-493.1	-474.5	-452.26	-435.62	-415.19	-397.78	-379.92	-361.01	-343.73	-326.94	-310.6	-296.22	-280.45	-264.33	-247.72	-234.72	-223.5	-212.75	-201.62	-191.39	-180.29	-171.41	-161.76	-152.42	-145.53	-144.37	-136.98	-130.36	-125.17	-120.71	-116.39	-112.5	-109.89	-106.48	-103	-101.7	-100.76	-98.776	-98.074	-80.423	-81.385	-81.779	-81.989	-81.025	-78.551	-79.838	-81.491	-84.004	-84.989	-86.663	-89.219	-86.956	-86.598	-91.304	-94.814	-92.213	-92.603	-94.072	-94.451	-94.803	-95.51	-95.185	-92.412	-88.897	-86.394	-84.186	-77.53	-77.2	-76.766	-75.271	-75.063	-74.261	-63.023	-54.985	-38.224	-36.902	-36.812	-36.114	-36.978	-37.31	-27.1	-26.821	-25.643	-22.579	-20.75	-22.14	-22.977	-22.745	-21.983	-24.212	-24.87	-24.241	-13.557	-26.894	-30.655	-29.51	-29.945	-32.758	-35.486	-37.979	-40.85	-44.018	-48.032	-54.152	-59.344	-65.731	-71.941	-74.337	-79.455	-84.696	-87.52	-90.501	-95.233	-96.782	-98.097	-97.996	-99.055	-96.607	-95.241	-91.647	-86.136	-82.12	-75.683	-74.209	-71.353	-67.254	-67.942	-70.072	-64.473	-64.738	-64.131	-58.889	-61.407	-63.703	-63.546	-64.442	-66.53	-69.037	-70.948	-73.8	-75.472	-77.143	-78.093	-80.329	-69.406	-60.668	-61.584	-63.248	-64.036	-64.929	-66.496	-66.464	-66.966	-55.079	-45.874	-46.171	-47.385	-50.22	-50.884	-51.229	-52.741	-53.637	-39.128	-34.805	-37.001	-57.526	-58.076	-58.667	-60.252	-61.839	-62.489	-63.482	-65.144	-68.525	-58.613	-67.104	-67.941	-46.185	-36.8	-30.819	-27.961	-28.309	-30.962	-39.695	-40.505	-44.733	-43.743	-43.104	-41.72	-40.913	-36.31	-35.963	-37.489	-39.67	-40.599	-42.706	-46.648	-47.661	-46.249	-46.194	-50.83	-50.602	-49.608	-54.6	-53.74	-56.428	-55.736	-55.263	-57.839	-61.176	-65.591	-66.715	-66.793	-68.266	-66.937	-67.007	-67.342	-68.007	-67.853	-69.524	-70.812	-72.597	-73.745	-74.101	-74.145	-74.401	-74.241	-74.515	-75.649	-73.594	-72.315	-72.28	-73.08	-73.727	-74.015	-75.685	-78.413	-82.66	-85.479	-86.348	-87.044	-89.162	-92.608	-94.218	-96.62	-98.955	-101.44	-102.46	-104.34	-105.96	-107.27	-109.45	-110.76	-113.43	-115.13	-118.55	-119.42	-120.62	-123.57	-126.84	-129.93	-133.14	-137.39	-140.3	-143.1	-144.91	-147.54	-149.82	-149.07	-153.65	-156.29	-156.82	-158.17	-159.52	-160.92	-163.2	-165.95	-169.06	-171.34	-173.39	-176.19
-2195.1	-2198	-2185.5	-2184.2	-2179.9	-2167.7	-2166.1	-2164.1	-2171.3	-2167.1	-2159.6	-2150	-2158.7	-2167.3	-2157.9	-2152.6	-2147.3	-2142.8	-2138.1	-2131.8	-2122	-2104.1	-2069.1	-2074.5	-2049.5	-2040.5	-2029.5	-2014.4	-1996.3	-1970.2	-1941.6	-1947.9	-1924	-1918.6	-1902.1	-1886.6	-1868	-1842.5	-1811.9	-1813	-1775.5	-1744	-1714.1	-1682.2	-1638.6	-1632.9	-1598.3	-1574.6	-1548.7	-1517.8	-1479.8	-1443.1	-1386.2	-1322.5	-1255.6	-1209	-1135.9	-1077.9	-1023.2	-962.56	-903.97	-854.86	-812.58	-784.12	-756.38	-715.3	-705.12	-689.59	-672.7	-651.88	-643.61	-636.93	-619.5	-602.61	-586.52	-560.9	-537.07	-513.76	-487.67	-465.94	-443.42	-425.77	-407.82	-386.41	-368.37	-349.04	-331.79	-314.07	-295.54	-279.45	-263.74	-248.94	-234.31	-218.65	-205.95	-195.52	-187.72	-178.66	-169.99	-160.55	-153.11	-143.4	-136.57	-129.45	-124.18	-120.28	-121.58	-116.15	-113.39	-109.81	-106.37	-104.27	-103.44	-101.23	-100.93	-100.09	-101.3	-98.137	-99.72	-100.29	-100.04	-100.7	-100.23	-97.285	-99.728	-100.47	-101.43	-104.76	-107.55	-110.28	-105.98	-96.531	-99.043	-101.76	-97.573	-99.284	-99.569	-99.745	-100.86	-101.38	-97.776	-95.842	-96.19	-95.51	-94.581	-92.978	-93.237	-92.813	-91.192	-83.766	-79.813	-71.021	-70.091	-70.576	-70.865	-69.439	-69.29	-49.829	-32.962	-32.414	-31.534	-32.98	-33.608	-33.381	-32.558	-34.502	-34.502	-34.123	-34.326	-37.056	-36.537	-37.6	-39.122	-39.341	-40.266	-39.788	-40.204	-41.479	-42.049	-42.688	-47.153	-48.898	-53.196	-58.597	-66.325	-69.929	-73.842	-76.248	-81.587	-86.788	-88.473	-87.85	-91.95	-94.018	-93.664	-94.304	-96.164	-94.69	-90.275	-82.506	-73.346	-73.673	-65.401	-60.814	-62.096	-60.751	-53.202	-54.998	-58.355	-58.828	-58.777	-60.981	-61.833	-54.782	-53.237	-56.408	-59.034	-60.845	-61.801	-64.783	-66.145	-68.224	-66.166	-63.028	-63.406	-64.824	-65.702	-67.842	-57.168	-56.012	-54.764	-47.211	-47.365	-47.968	-48.671	-50.245	-52.686	-53.387	-53.962	-47.223	-34.052	-33.916	-34.428	-35.603	-36.687	-47.891	-51.021	-52.418	-53.719	-55.304	-56.595	-55.984	-54.51	-52.704	-53.634	-48.011	-49.162	-35.004	-25.228	-12.55	-8.4318	-9.2875	-15.489	-21.479	-22.996	-24.953	-22.111	-20.229	-18.274	-16.305	-17.23	-17.352	-22.795	-27.988	-33.238	-38.356	-40.151	-41.025	-40.62	-39.651	-41.069	-40.321	-37.757	-37.49	-39.69	-42.545	-46.373	-47.813	-52.237	-48.596	-50.084	-50.511	-54.433	-56.024	-55.485	-54.036	-55.827	-59.693	-62.255	-62.222	-65.037	-66.853	-71.28	-72.962	-71.711	-74.017	-74.685	-73.971	-74.307	-74.267	-76.011	-71.678	-72.47	-73.593	-75.086	-77.194	-81.102	-84.056	-86.57	-87.67	-90.829	-92.909	-95.616	-97.842	-98.759	-101.29	-102.65	-104.73	-106.3	-108.64	-109.83	-112.28	-113.95	-116.48	-117.86	-120.82	-122.3	-124.37	-126.5	-129.58	-131.73	-134.98	-139.24	-139.47	-142.1	-144.56	-145.03	-146.68	-148.45	-150.02	-151.32	-152.58	-154.79	-156.16	-156.51	-159.87	-161.14	-164.18	-166.25	-169.31
-2205.9	-2183.2	-2189.2	-2180.5	-2183.9	-2175.4	-2163.5	-2172.9	-2176.3	-2178	-2177.4	-2172.9	-2170.5	-2164.8	-2174.9	-2161.1	-2160.4	-2156.3	-2153.3	-2149.3	-2142.4	-2131.2	-2104.1	-2073.3	-2077	-2060.5	-2050.2	-2038	-2021.7	-2002.2	-1976.3	-1945.1	-1947.7	-1935.9	-1918.4	-1905.5	-1885.7	-1860.7	-1827.4	-1805.8	-1775	-1750.8	-1721.3	-1692.9	-1658.5	-1618.3	-1618.8	-1584.3	-1563.9	-1530.4	-1486.8	-1431.1	-1416.3	-1340.3	-1264.4	-1200	-1128.5	-1084	-1010.4	-945.07	-880.15	-851.01	-808.36	-780.19	-748.68	-701.37	-691.49	-673.72	-654.34	-632.12	-631.05	-623.06	-599.99	-579.47	-565.77	-538.43	-512.89	-485.16	-458.8	-434.47	-420.03	-396.93	-377.9	-356.61	-337.6	-317.1	-299.11	-281.95	-265.23	-247.25	-233.08	-213.54	-199.88	-188.02	-178.19	-169.2	-164.09	-156.97	-146.93	-138.76	-130.73	-122.58	-116.89	-111.46	-106.06	-100.82	-97.346	-93.578	-90.105	-88.203	-87.131	-96.058	-97.046	-96.544	-99.175	-99.349	-100.26	-100.71	-101	-102.01	-103.78	-104.23	-103.62	-99.105	-99.692	-102.56	-106.28	-108.64	-111.44	-114.58	-107.11	-104.74	-108.54	-111.64	-106.09	-107.44	-108.19	-108.87	-110.3	-109.27	-103.77	-104.21	-104.14	-103.89	-101.91	-101.03	-100.01	-97.954	-91.052	-88.899	-87.759	-87.858	-86.427	-86.289	-80.644	-77.214	-73.474	-67.719	-67.767	-66.849	-67.684	-67.203	-67.717	-68.679	-68.004	-68.723	-69.752	-69.479	-69.195	-70.875	-60.074	-71.838	-72.374	-73.659	-73.348	-74.021	-73.389	-73.268	-74.358	-58.749	-55.074	-58.293	-62.103	-65.104	-67.784	-71.233	-72.712	-77.279	-81.84	-84.744	-87.428	-87.583	-87.554	-89.603	-92.079	-91.722	-91.56	-92.347	-91.153	-82.642	-75.145	-67.193	-63.932	-61.61	-61.074	-55.365	-52.723	-52.078	-55.058	-57.565	-57.832	-55.916	-46.514	-47.822	-50.328	-50.117	-51.323	-55.057	-55.843	-57.493	-59.269	-60.215	-54.836	-52.049	-54.545	-56.177	-56.892	-49.338	-50.672	-51.39	-50.245	-49.956	-50.698	-50.679	-47.993	-45.018	-45.087	-46.648	-44.124	-34.314	-36.513	-36.882	-37.127	-37.786	-39.593	-40.833	-41.716	-42.18	-43.657	-45.732	-46.368	-45.536	-46.893	-39.334	-37.171	-34.468	-27.831	-29.769	-20.019	-7.1142	2.7203	8.7358	9.1222	4.9308	0.96222	-0.10098	0.088769	1.8888	2.8659	5.8058	3.8971	0.36519	-4.2988	-10.801	-19.056	-25.221	-29.492	-33.219	-35.54	-37.256	-34.996	-32.382	-31.118	-28.642	-24.542	-26.183	-23.903	-25.105	-29.066	-33.765	-40.368	-38.447	-39.358	-40.047	-39.575	-42.932	-45.326	-47.339	-50.219	-53.129	-55.217	-57.94	-62.287	-65.157	-67.898	-69.367	-70.302	-73.178	-73.971	-72.232	-71.664	-73.027	-74.37	-76.115	-74.683	-76.743	-80.146	-81.895	-84.607	-88.18	-91.008	-92.707	-94.781	-97.343	-98.603	-100.74	-103.12	-104.76	-107.6	-109.06	-111.5	-113.02	-115.42	-116.61	-118.98	-121.06	-123.03	-125.14	-126.91	-128.92	-131.27	-133.59	-135.82	-136.84	-138.75	-140.6	-142.08	-142.68	-143.71	-145.49	-146.76	-148.03	-149.32	-150.55	-151.77	-154.27	-154.95	-155.09	-159.13	-162.19
-2213.8	-2193.6	-2174.8	-2181.8	-2194.6	-2179.6	-2179.5	-2178.6	-2179.7	-2195.9	-2190.5	-2192.4	-2189.3	-2183.1	-2166.5	-2176.4	-2161.5	-2167.3	-2170.9	-2170.4	-2166	-2160	-2139.1	-2119.6	-2097.9	-2080.9	-2084.3	-2061.2	-2050.6	-2036.6	-2011.9	-1987.2	-1964.1	-1950.9	-1947.2	-1927.2	-1906.9	-1886.5	-1849.4	-1804.8	-1794.2	-1762.6	-1731.7	-1712.5	-1678	-1642.1	-1602	-1599.8	-1596.6	-1546.1	-1508.6	-1471.1	-1396.4	-1381.9	-1282.1	-1183.1	-1160.1	-1097.7	-1019.4	-924.77	-899.16	-849.38	-805.36	-789.47	-753.76	-697.01	-685.04	-666.13	-642.56	-618.5	-618.25	-600.47	-579.09	-562.58	-546.18	-515.12	-487.02	-456.12	-429.19	-412.82	-390.3	-367.89	-346.33	-324.83	-308.73	-279.85	-261.37	-246.29	-230.5	-215.2	-202.2	-188.03	-172.51	-162.73	-155.11	-146.65	-142.25	-133.59	-124.65	-114.36	-108.14	-102.31	-96.336	-93.146	-89.075	-84.536	-82.664	-81.66	-79.124	-79.139	-88.687	-88.359	-86.637	-86.361	-86.948	-85.044	-85.044	-99.44	-101.51	-103.24	-103.42	-104.52	-100.55	-96.027	-98.442	-106.92	-110.6	-112.25	-114.48	-118.82	-112.86	-105.93	-112.21	-116.83	-108.56	-108.16	-110.4	-113.03	-112.41	-112.82	-111.99	-112.37	-112.61	-111.72	-110.38	-107.8	-106.06	-103.24	-99.838	-98.109	-95.983	-95.353	-94.642	-91.835	-85.847	-85.081	-84.382	-84.617	-84.544	-84.761	-84.86	-77.905	-76.903	-77.467	-77.965	-78.678	-78.962	-79.462	-81.213	-77.322	-70.001	-80.032	-83.27	-82.686	-84.433	-84.296	-83.025	-82.11	-79.429	-72.324	-72.95	-72.429	-73.064	-75.426	-74.144	-74.485	-78.408	-79.324	-85.224	-86.504	-87.436	-88.543	-89.732	-87.963	-90.701	-92.117	-89.941	-89.118	-89.04	-83.34	-78.535	-71.884	-68.944	-66.853	-62.392	-56.195	-57.978	-58.253	-56.233	-57.466	-59.907	-55.404	-50.679	-48.446	-47.407	-49.892	-50.419	-51.021	-54.973	-57.136	-57.56	-57.521	-47.722	-48.52	-48.419	-49.763	-50.949	-53.822	-51.036	-50.521	-52.242	-51.63	-50.812	-51.694	-44.663	-46.482	-37.229	-38.983	-40.542	-42.645	-40.567	-40.932	-43.711	-42.397	-43.055	-44.548	-44.448	-47.228	-38.749	-36.767	-38.311	-35.884	-27.357	-28.304	-23.51	-18.978	-15.598	-8.9227	-8.9915	3.5401	13.368	24.355	29.003	30.451	25.454	24.962	23.51	22.814	24.985	28.029	26.09	21.242	15.416	6.8712	-1.8697	-10.799	-19.937	-25.508	-27.663	-26.787	-24.933	-23.685	-21.515	-19.574	-16.657	-12.906	-10.865	-12.695	-15.509	-14.579	-15.349	-18.156	-21.177	-22.284	-24.874	-26.786	-30.557	-35.127	-34.858	-37.052	-41.528	-48.141	-51.169	-54.063	-57.446	-62.29	-63.208	-64.514	-66.514	-69.941	-68.87	-69.301	-71.555	-71.864	-73.004	-75.472	-76.906	-80.204	-85.086	-87.213	-89.927	-92.252	-94.923	-96.674	-98.773	-100.16	-102.92	-105.44	-107.27	-110.09	-113.14	-114.42	-115.62	-117.91	-120.23	-122.37	-124.57	-125.8	-127.44	-128.25	-130.65	-132.38	-133.37	-134.12	-135.03	-136.93	-138.01	-138.72	-140.77	-140.67	-142.11	-143.57	-144.82	-145.09	-146.5	-148.08	-148.68	-151.93	-153.04	-156.17
-2217.5	-2201	-2190.6	-2183.9	-2178.4	-2193.7	-2194.4	-2195.8	-2197.4	-2187.1	-2203.6	-2216	-2197	-2198.4	-2192.2	-2166.5	-2178.9	-2188.2	-2194	-2181.7	-2176.6	-2182.2	-2176.9	-2173.9	-2153.1	-2133.8	-2108.3	-2083.2	-2080.7	-2081.8	-2044.4	-2025.4	-2001.6	-1985.5	-1962	-1942.4	-1939.3	-1910.2	-1874.8	-1850	-1813.2	-1778.2	-1763.8	-1732.9	-1702.8	-1671.6	-1649.6	-1619.5	-1576.4	-1565.4	-1553.3	-1504.2	-1447	-1356.3	-1341.6	-1259.8	-1185.9	-1113	-1093	-980.38	-918.59	-857.76	-834.73	-776.21	-766.61	-705.99	-692.62	-661.66	-639.51	-609.34	-600.3	-585.28	-559.99	-545.05	-526.75	-488.85	-457.72	-430	-405.49	-380.82	-353.77	-332.4	-310.15	-288.58	-275.36	-256.22	-228.09	-212.2	-199.32	-184.31	-171.38	-162.72	-152.18	-140.75	-133.88	-127.56	-121.11	-113.64	-102.59	-91.179	-85.531	-83.855	-83.362	-77.636	-77.234	-72.64	-71.187	-72.873	-73.072	-71.467	-73.452	-76.416	-74.279	-72.141	-74.199	-78.725	-92.255	-93.712	-95.772	-95.276	-95.584	-97.975	-96.671	-93.515	-93.747	-96.157	-98.245	-101.99	-113.31	-119.42	-114.19	-112.02	-112.95	-117.82	-109.58	-108.86	-111.23	-113.98	-117.12	-117.69	-114.15	-116.59	-116.87	-114.32	-112.35	-110.78	-109.39	-107.1	-105.91	-104.99	-103.81	-100.32	-99.326	-98.164	-96.01	-95.536	-94.772	-95.754	-95.304	-92.677	-84.734	-83.681	-83.288	-84.436	-85.493	-86.076	-87.147	-87.181	-87.426	-87.837	-88.308	-90.951	-91.705	-90.858	-92.142	-92.222	-90.26	-90.224	-90.457	-90.792	-90.584	-90.426	-90.571	-91.658	-92.983	-84.766	-83.657	-86.927	-88.459	-90.735	-91.155	-91.84	-92.837	-93.012	-90.673	-91.663	-90.678	-86.979	-85.09	-85.641	-81.406	-80.187	-74.6	-72.19	-70.146	-68.45	-67.519	-69.482	-68.616	-67.017	-67.769	-61.663	-57.682	-51.412	-50.701	-52.746	-54.601	-54.681	-55.813	-58.926	-61.429	-60.004	-62.406	-65.246	-63.932	-65.103	-66.226	-66.225	-67.317	-65.664	-63.953	-65.861	-66.444	-64.698	-66.078	-68.338	-55.357	-52.126	-54.475	-45.74	-46.907	-44.847	-45.768	-47.713	-40.659	-36.891	-34.268	-30.165	-31.593	-30.607	-27.074	-23.433	-19.437	-11.324	-12.77	-7.4013	-0.53519	1.3244	8.6	15.906	24.645	37.021	49.371	47.031	47.617	48.803	46.93	43.59	44.789	48.435	47.683	40.642	31.608	23.278	15.653	3.1601	-8.9771	-13.166	-14.183	-15.539	-15.837	-15.119	-16.075	-16.113	-12.756	-6.221	-1.9477	-0.66085	-1.6535	-0.92256	-3.3255	-3.907	-3.7609	-2.6008	-3.5319	-6.2094	-11.135	-16.99	-20.354	-24.435	-26.718	-31.544	-36.612	-42.202	-45.707	-48.773	-52.415	-55.732	-57.881	-58.711	-61.6	-64.525	-66.378	-68.698	-71.586	-74.8	-77.267	-80.09	-83.632	-85.625	-88.34	-89.663	-92.475	-95.4	-97.836	-99.735	-101.47	-104.71	-107.82	-109.61	-111.37	-114.07	-115.86	-118.09	-120.17	-122.39	-125.03	-126.35	-128.05	-128.89	-129.42	-130.93	-131.92	-132.71	-132.56	-133.49	-133.77	-134.65	-135.82	-137.86	-137.39	-138.88	-139.29	-140.83	-141.47	-143.1	-144.55	-145.79	-149.93	-150.09
-2218.6	-2197.2	-2195.1	-2191.9	-2193.9	-2192.9	-2194.3	-2215.3	-2206.1	-2217.8	-2223.4	-2200.8	-2213.2	-2223.8	-2231.1	-2205.8	-2203.5	-2213.6	-2210.9	-2189.1	-2198.2	-2205.5	-2202.3	-2209.5	-2214.9	-2179.6	-2155.2	-2133.2	-2106.5	-2065.8	-2066.4	-2067.3	-2026	-2024.2	-2001.6	-1985.3	-1954.1	-1924.6	-1918.4	-1885	-1854.1	-1826.5	-1785.3	-1748.6	-1729.8	-1717.5	-1666.3	-1646.7	-1628.2	-1601.3	-1570.8	-1534	-1517.2	-1437.3	-1383.2	-1294.6	-1280.6	-1197.3	-1060.9	-1038.1	-1020.4	-931.38	-801.14	-800.17	-764.07	-698.71	-703.31	-660.29	-621.8	-586.68	-590.09	-568.35	-546.37	-525.62	-505.42	-468.36	-438.07	-406.23	-376.82	-348.51	-318.25	-293.79	-274.46	-252.5	-239.03	-220.62	-199	-180.04	-168.62	-156.5	-144.52	-136.36	-130.84	-121.19	-113.79	-110.51	-113.2	-106.95	-98.851	-94.47	-80.122	-60.997	-57.393	-55.106	-50.962	-50.854	-51.044	-48.857	-49.697	-48.293	-46.827	-48.208	-48.768	-69.204	-81.713	-86.955	-86.367	-84.171	-85.097	-84.929	-82.156	-86.596	-91.363	-89.541	-93.65	-95.23	-100.46	-106.16	-114.92	-120.18	-110.46	-102.7	-113.31	-117.77	-108.47	-110.51	-110.57	-116.28	-120.13	-120	-116.73	-118.62	-119.46	-116.33	-113.25	-113.37	-111.89	-110.74	-109.21	-108.1	-105.89	-102.96	-100.78	-100.97	-101.72	-100.26	-99.822	-101.22	-100.73	-99.925	-101.68	-102.45	-101.74	-103.07	-103.78	-104.24	-105.37	-105.87	-106	-106.57	-108.03	-107.74	-108.94	-110.47	-110.31	-109.9	-109.53	-109.48	-102.42	-101.29	-101.09	-101.87	-102.25	-101.38	-99.939	-95.005	-93.798	-94.663	-96.457	-96.967	-97.142	-96.817	-95.377	-94.319	-94.699	-92.705	-92.097	-91.783	-88.219	-86.364	-86.943	-83.543	-79.177	-77.487	-78.916	-79.266	-79.541	-79.507	-81.923	-83.368	-82.256	-70.843	-68.05	-64.025	-64.249	-63.756	-65.257	-67.224	-68.585	-68.757	-70.357	-73.142	-72.948	-72.927	-75.365	-74.522	-76.726	-75.269	-74.472	-75.289	-66.996	-61.004	-62.449	-63.133	-60.314	-58.946	-58.509	-56.574	-63.141	-61.657	-44.229	-41.728	-40.76	-34.175	-37.262	-28.846	-20.909	-19.186	-23.446	-19.927	-18.759	-12.414	-6.0288	-2.1707	-0.27957	6.4414	8.4981	12.701	21.229	24.207	33.942	46.892	57.027	64.449	67.792	66.147	67.197	65.705	64.973	67.591	64.479	58.1	48.606	38.263	28.675	19.85	10.778	7.1543	4.806	3.0927	1.4534	-1.8605	-4.8549	-6.4218	-8.364	-2.4819	-0.40559	-2.9128	-1.4485	-0.5181	0.1005	-2.2451	0.67304	4.6443	10.364	7.9617	7.4974	3.4531	0.11316	-3.9335	-8.4771	-14.872	-19.717	-25.567	-30.519	-34.556	-38.37	-41.825	-45.72	-47.483	-49.959	-54.293	-57.807	-60.984	-64.255	-68.005	-71.623	-75.948	-78.836	-80.665	-84.437	-86.699	-89.718	-92.455	-94.752	-97.949	-100.91	-102.98	-106.33	-108.29	-111.4	-113.06	-115.48	-118.68	-120.81	-121.69	-124.26	-127.01	-128.67	-128.5	-128.74	-130.24	-130.4	-130.34	-128.25	-129.2	-130.62	-130.61	-131.56	-132.47	-133.36	-134.21	-133.76	-135.57	-137.06	-137.89	-138.24	-140.5	-143.02	-144
-2196.6	-2189.6	-2192.4	-2198.8	-2198.3	-2203.5	-2208.8	-2193.9	-2217.7	-2236.3	-2258.4	-2238.3	-2238.1	-2248.8	-2251.7	-2222.7	-2232.7	-2239.8	-2246.5	-2220	-2215.2	-2226.6	-2226.1	-2227.2	-2195.3	-2202.7	-2207.5	-2169.6	-2139.7	-2114.2	-2083.8	-2042.9	-2044.2	-2052.6	-2049.9	-2010.4	-1983.8	-1962.6	-1928.6	-1896.8	-1888.1	-1880.2	-1814	-1799.8	-1760.2	-1679.8	-1681.2	-1679.5	-1671.5	-1625.9	-1594.8	-1589.6	-1548.6	-1471.1	-1453.4	-1438.8	-1425.2	-1229.2	-1209.3	-1184.8	-1110.6	-981.33	-949.83	-866.95	-766.61	-728.2	-753.04	-684.2	-599.12	-613.69	-598.27	-557.36	-528.75	-507.13	-488.09	-448.24	-414.26	-386.35	-336.25	-308.49	-285.62	-261.45	-244.3	-225.51	-212.78	-197.13	-182.72	-169.15	-157.11	-148.95	-140.13	-132.04	-127.37	-121.81	-116.77	-107.11	-95.364	-93.168	-89.393	-84.332	-80.803	-37.136	-29.045	-26.764	-24.583	-23.29	-23.863	-24.346	-22.833	-22.135	-19.72	-19.998	-28.353	-65.58	-64.325	-66.067	-64.017	-65.483	-66.771	-96.926	-93.632	-96.681	-97.078	-92.362	-88.889	-92.327	-98.123	-103.81	-109.77	-114.94	-102.88	-97.033	-109.32	-111.96	-103.14	-106.06	-115	-117.71	-119.64	-122.82	-117.84	-118.73	-121.05	-118.41	-116.12	-113.1	-112.6	-110.16	-108.61	-105.63	-105.92	-104.16	-103.44	-102.36	-103.3	-104.44	-103.58	-105.53	-104.11	-103.09	-103.61	-103.3	-104.41	-104.38	-104.96	-107.13	-107.22	-107.58	-107.96	-108.58	-108.92	-111.47	-111.75	-111.64	-112.55	-112.19	-112.61	-112.05	-108.75	-108.37	-108.12	-108.94	-108.45	-110.11	-106.31	-104.06	-104.36	-103.82	-102.31	-104.07	-102.98	-100.27	-99.358	-98.87	-98.385	-98.171	-95.936	-96.643	-93.746	-92.39	-90.557	-89.556	-87.883	-84.939	-84.235	-85.432	-86.128	-86.64	-85.101	-85.853	-84.741	-78.997	-78.362	-81.003	-80.397	-80.246	-73.027	-74.222	-72.747	-72.298	-71.374	-71.847	-73.729	-72.574	-71.088	-72.967	-73.717	-72	-69.007	-68.757	-61.307	-54.799	-51.761	-52.215	-53.87	-51.459	-49.918	-55.038	-56.31	-51.154	-39.713	-33.84	-33.707	-30.801	-29.325	-23.494	-19.161	-14.159	-12.479	-13.906	-9.8112	-8.3259	0.38448	8.3265	5.6474	10.003	18.228	21.436	20.765	30.877	41.049	54.496	64.742	70.628	78.652	81.6	79.412	77.787	80.032	85.273	78.336	70.166	57.961	50.153	40.96	33.51	29.632	26.427	22.9	21.201	19.211	18.467	15.151	12.07	9.8385	9.7624	9.0711	6.8432	6.0503	4.308	-1.2983	-3.4409	-1.7971	9.3768	15.386	15.419	16.122	19.671	16.606	10.675	11.431	7.7486	-1.2014	-7.9151	-14.618	-18.354	-23.74	-28.279	-30.702	-34.332	-38.178	-42.63	-45.71	-49.315	-54.28	-58.766	-62.313	-67.285	-71.742	-75.768	-78.018	-81.884	-85.722	-88.767	-91.398	-94.573	-98.105	-101.15	-103.84	-105.79	-109.41	-111.38	-114.24	-117.42	-119.5	-121.73	-123.29	-126	-126.99	-128.48	-128.95	-128.16	-128.38	-126.63	-125.82	-125.88	-127.31	-127.32	-127.15	-127.05	-127.97	-127.98	-129.18	-131.01	-131.31	-131.86	-132.55	-135.32	-135.94	-137.85
-2197.2	-2186.3	-2188.3	-2189.8	-2191.2	-2207.1	-2230.9	-2222.3	-2231.7	-2247.8	-2257	-2253.4	-2261.4	-2268.2	-2279.3	-2288.3	-2258.4	-2262.3	-2257.4	-2229.7	-2233	-2241.4	-2241.5	-2219.9	-2215.9	-2212.3	-2183	-2179.1	-2172.2	-2145.5	-2110.2	-2086.3	-2064.4	-2065	-2019.2	-2020.9	-2016.8	-1985.6	-1959.8	-1938.7	-1909.6	-1846	-1835.2	-1838.6	-1828.7	-1740.7	-1713.4	-1706.9	-1681.2	-1637.4	-1628.1	-1625.1	-1614	-1540.6	-1503.7	-1481.4	-1386.3	-1373.6	-1355.5	-1332.5	-1317.3	-1131.7	-1056.4	-923.87	-921.47	-807.84	-733.42	-741.01	-729.24	-697.49	-620.23	-543.62	-514.98	-496.21	-476.97	-414.59	-372.57	-319.96	-292.35	-271.37	-250.41	-230.01	-211.85	-192.04	-183.07	-167.47	-154.87	-147.75	-139.65	-132.75	-126.5	-120.39	-113.42	-109.46	-106.4	-104.12	-75.709	-62.726	-14.247	-8.6395	-4.8493	-2.2461	1.13	3.3963	4.4443	6.2544	5.3406	5.2408	5.7092	8.4115	7.1916	5.7009	6.9642	7.82	8.945	8.6237	-21.557	-47.718	-85.696	-86.504	-89.662	-91.2	-86.777	-79.685	-109.74	-113.28	-115.41	-119.84	-122.98	-125.19	-107.98	-95.255	-97.794	-103.23	-91.921	-99.449	-111.74	-113.22	-115.54	-118.35	-127.19	-126.72	-126.14	-123.54	-118.99	-114.86	-111.06	-110.1	-107.19	-103.18	-100.8	-106.23	-104.5	-101.53	-101.93	-102.68	-104.26	-102.52	-103.78	-103.04	-101.69	-102.19	-101.49	-103.01	-103.46	-103.56	-104.96	-105.15	-105.84	-106.06	-107.68	-108.36	-109.31	-108.5	-109.8	-110.74	-110.17	-111.09	-113.31	-114.86	-114.21	-115.07	-116.3	-115	-112.85	-113.27	-113.5	-112.33	-111.29	-110.8	-109.02	-107.47	-105.58	-103.53	-104.04	-102.89	-101.8	-98.648	-98.232	-98.389	-98.661	-96.855	-94.104	-91.758	-90.811	-90.896	-92.385	-90.696	-88.828	-86.269	-85.383	-85.912	-85.842	-84.121	-84.694	-83.144	-80.532	-80.663	-78.235	-74.849	-74.58	-72.089	-70.413	-70.666	-70.564	-68.035	-68.231	-67.404	-62.868	-57.854	-53.928	-48.923	-49.588	-48.217	-49.072	-51.435	-51.11	-50.076	-48.64	-43.034	-34.196	-29.565	-29.722	-29.209	-27.99	-19.914	-14.942	-13.746	-14.004	-10.513	-7.2851	-5.8192	0.84372	5.0312	8.0692	12.152	15.415	23.351	26.23	30.618	41.853	54.773	67.051	75.861	75.641	82.096	86.632	83.829	85.047	92.209	85.823	71.622	60.661	50.045	46.991	44.846	40.601	38.934	38.41	37.341	33.786	31.728	31.02	28.433	22.045	17.432	17.768	18.483	15.799	14.195	11.026	13.992	12.61	14.472	16.007	13.413	14.174	14.887	19.061	21.441	24.661	21.327	14.841	12.608	5.7889	-0.36802	-6.3934	-11.394	-15.581	-19.46	-23.817	-27.78	-32.996	-36.05	-41.278	-47.732	-52.87	-57.202	-62.264	-66.662	-72.255	-76.679	-79.016	-82.604	-86.822	-90.095	-93.498	-96.904	-99.388	-103.39	-106.74	-108.7	-112.06	-115.84	-118.09	-120.31	-123.2	-125.32	-126.35	-127.12	-127.89	-127	-126.39	-124.55	-123.51	-123.15	-123.77	-122.78	-122.17	-122.22	-122.58	-122.97	-123.91	-124.67	-125.09	-126.86	-128.57	-129.13	-131.03	-132.56
-2209.9	-2193.1	-2185.1	-2184.3	-2192	-2202.1	-2202.1	-2227.8	-2251.2	-2251.4	-2261.4	-2266.1	-2268.1	-2276.8	-2281.6	-2262.8	-2268.8	-2275.7	-2283.7	-2252.4	-2245.8	-2247.1	-2210.6	-2217.8	-2209.1	-2199.3	-2194.2	-2180.4	-2164.6	-2143	-2136.8	-2110.7	-2093.5	-2080.6	-2052.6	-2033.4	-2017.2	-1985.4	-1981.8	-1980.9	-1923.2	-1896.9	-1878	-1868	-1782.8	-1771.3	-1766.3	-1723	-1690.7	-1678.4	-1661.6	-1658.2	-1620.1	-1570	-1550.7	-1534.7	-1527.6	-1448.1	-1416.1	-1386.4	-1285.6	-1285.7	-1209.3	-1079	-1080.2	-861.39	-897.65	-805.94	-773.65	-685.39	-676.07	-595.31	-533.87	-486.04	-442.06	-371.75	-340.83	-311.38	-270.62	-243.76	-222.91	-202.52	-177.82	-153.9	-143.65	-131.19	-119.35	-103.83	-56.921	-50.234	-45.634	-40.244	-35.631	-31.744	-29.536	-29.371	-35.765	-36.86	4.9612	18.466	22.102	24.218	27.598	30.295	31.465	31.401	30.755	29.439	29.806	31.056	39.66	75.336	75.56	77.893	80.066	78.478	-13.173	-15.057	-15.137	-16.747	-17.669	-19.263	-14.088	-64.992	-95.157	-96.297	-97.558	-101.66	-105.92	-108.44	-93.013	-77.411	-95.905	-109.77	-96.032	-99.335	-102.62	-105.08	-108.05	-128.97	-124.15	-124.71	-120.79	-117.89	-116.54	-111.65	-108.3	-105.97	-104.37	-100.73	-96.847	-92.854	-99.571	-100.79	-99.401	-99.688	-101.14	-107.25	-103.83	-103.03	-104.38	-104.55	-104.07	-104.53	-104.93	-105.37	-106.34	-106.39	-106.46	-107.85	-108.5	-109.25	-111.17	-111.48	-110.99	-113.15	-114.19	-114.58	-115.35	-116.59	-117.32	-117.79	-119.01	-119.99	-120.28	-120.11	-119.75	-118.21	-119.13	-119.89	-115.76	-114.99	-113.92	-110.9	-110.94	-110.47	-108.99	-107.99	-106.3	-106.45	-106.03	-103.82	-99.858	-100.1	-100.47	-99.759	-100.96	-97.521	-96.042	-94.808	-92.515	-90.375	-88.678	-87.85	-85.648	-85.653	-87.689	-83.824	-85.493	-83.504	-80.95	-78.362	-75.697	-73.339	-72.624	-72.073	-65.203	-61.684	-55.752	-52.449	-50.503	-49.131	-48.802	-49.398	-50.671	-49.438	-48.523	-46.776	-41.793	-37.73	-36.774	-33.276	-31.699	-29.967	-26.128	-22.993	-18.028	-16.296	-16.072	-14.877	-9.4497	-6.1539	-4.5998	2.4723	2.0913	9.5615	13.685	18.118	26.179	29.322	38.341	48.169	58.608	66.606	72.544	74.898	80.291	85.138	81.311	85.876	73.138	64.036	54.83	44.976	45.157	46.272	46.962	44.895	43.824	45.297	46.014	42.756	41.73	39.108	39.055	35.805	33.163	32.578	33.872	31.315	26.802	28.611	27.015	25.11	22.867	19.561	18.207	14.952	9.8317	18.327	24.122	27.664	31.012	24.94	17.268	13.553	8.6321	5.2558	2.1917	-2.795	-7.5565	-12.038	-17.396	-22.221	-29.029	-34.525	-41.378	-46.296	-52.415	-56.941	-62.177	-67.834	-72.238	-75.082	-79.651	-84.299	-87.681	-91.688	-94.02	-98.096	-102.37	-106.01	-109.63	-113.41	-115.77	-118.94	-122.28	-124.21	-125.44	-126.66	-126.53	-125.39	-123.54	-122.01	-120.52	-120	-119.61	-118.86	-117.27	-117.38	-118.05	-118.37	-118.59	-119.1	-119.63	-121.4	-123.26	-123.86	-125.72	-127.41
-2196.4	-2184.8	-2176	-2177.1	-2186.5	-2194.8	-2206	-2221.4	-2226.2	-2249.3	-2272.2	-2266.7	-2272.7	-2277.4	-2277	-2274.4	-2274.4	-2275.1	-2253.7	-2255.8	-2256.4	-2267.5	-2226.7	-2211.1	-2194.3	-2191.5	-2197	-2164.2	-2152.5	-2145.6	-2131.6	-2106.6	-2104.7	-2113.9	-2064.5	-2042.1	-2022.6	-2005.2	-1988	-1943.7	-1938.4	-1924.2	-1918.2	-1930.7	-1847.3	-1811.6	-1786.9	-1740.7	-1730.2	-1713.8	-1704.9	-1668.7	-1629.8	-1611.3	-1595.1	-1584.5	-1550.4	-1495.2	-1473.9	-1446.4	-1436.4	-1362.4	-1229.1	-1237	-1120.2	-1022.2	-884.08	-897.75	-835.93	-754.9	-670.69	-655.56	-560.07	-483.47	-413.34	-368.51	-320.79	-284.27	-251.03	-222.95	-199.1	-174.97	-147.81	-110.52	-105.81	-96.633	-84.398	-73.328	-67.384	-38.215	-31.002	-24.173	-17.842	-10.576	-4.9859	7.0364	35.822	34.804	35.788	37.348	42.643	46.804	50.833	52.779	54.694	54.409	53.748	53.547	54.224	55.647	56.425	75.374	84.634	85.436	87.563	58.27	55.295	55.688	55.354	53.87	53.599	53.724	58.58	9.9522	-20.586	-21.594	-24.634	-26.629	-30.646	-35.854	-18.677	-49.382	-100.56	-103.79	-83.74	-79.972	-84.538	-87.102	-90.545	-89.239	-83.515	-109.42	-114.7	-110.93	-111.06	-112	-109.07	-106.37	-105.22	-103.09	-100.15	-98.856	-98.982	-98.243	-98.851	-96.715	-99.023	-103.74	-105.72	-104.8	-107.35	-109.34	-107.86	-107.3	-107.03	-108.1	-110.05	-108.9	-110.16	-110.61	-111.36	-112.56	-113.25	-114.18	-113.93	-113.71	-115.75	-118.85	-120.19	-121.15	-123.21	-124.16	-124.45	-125.07	-125.83	-125.17	-125.59	-125.88	-126.02	-122.98	-123.39	-122.11	-121.81	-117.83	-116.55	-117.25	-117.76	-116.51	-115.47	-114.21	-112.92	-111.28	-110.38	-108.81	-109.04	-108.34	-103.99	-104.95	-105.34	-104	-101.25	-98.598	-97.695	-95.174	-94.763	-93.83	-93.056	-92.566	-89.087	-89.865	-90.527	-85.923	-81.165	-78.547	-75.213	-72.189	-66.32	-60.137	-57.535	-55.36	-53.52	-52.267	-53.32	-54.378	-53.179	-51.958	-50.643	-47.95	-44.037	-41.462	-41.228	-40.463	-38.716	-35.765	-32.234	-27.928	-27.431	-25.133	-22.412	-20.872	-18.943	-14.057	-7.149	-8.003	-3.5034	0.90291	5.7776	10.658	17.257	16.6	29.55	38.061	42.942	50.635	57.446	66.384	65.961	66.14	74.348	65.874	53.763	45.382	44.027	44.779	39.281	41.485	41.075	43.973	45.473	43.93	43.87	47.089	46.885	45.015	44.757	42.243	41.467	40.029	37.09	37.098	37.856	34.912	32.082	30.846	30.478	26.922	24.581	20.423	25.278	22.275	19.37	25.132	27.739	30.171	27.856	24.756	23.103	20.362	16.068	12.592	9.0882	3.4561	-2.7041	-8.578	-15.289	-21.451	-28.474	-34.954	-41.051	-46.768	-52.369	-57.848	-62.552	-67.272	-72.243	-77.157	-80.664	-84.773	-89.436	-92.817	-96.814	-100.94	-106.55	-110.55	-113.29	-116.55	-120.2	-123.02	-124.23	-125.14	-125.07	-123.25	-120.6	-119.47	-117.92	-116.67	-115.45	-114.98	-113.61	-112.9	-112.22	-112.67	-113.9	-113.35	-114.12	-115.81	-116.56	-118.54	-120.45	-122.38
-2165.8	-2160.3	-2153.5	-2161.5	-2174	-2186.3	-2199.4	-2212.5	-2227.7	-2240.8	-2247.6	-2261.6	-2273.4	-2279.4	-2280.1	-2279.3	-2276.7	-2271.7	-2264.5	-2258.8	-2253.2	-2235.4	-2229.6	-2214.3	-2199.8	-2182.9	-2164.1	-2157.4	-2146.6	-2138.9	-2129.4	-2117.6	-2104.7	-2078.4	-2068.2	-2050.8	-2034.8	-2016.7	-1997.5	-1975.8	-1957.3	-1943.7	-1926.7	-1888.8	-1875	-1859.5	-1828.7	-1796.3	-1766.9	-1746.5	-1720.7	-1687.5	-1674.5	-1662.3	-1647.3	-1626.4	-1600.6	-1571.4	-1543.2	-1516.7	-1476.2	-1416.8	-1382.1	-1302.1	-1223.9	-1186.6	-1054.8	-960.72	-892.21	-842.36	-753.62	-665.77	-591.04	-503.66	-419.79	-370.5	-315.33	-272.69	-239.17	-210.1	-182.75	-158.3	-132.58	-114.85	-89.056	-75.671	-63.19	-52.902	-43.019	-35.355	-26.403	-16.705	-6.0568	3.2935	13.931	25.385	44.207	54.513	59.595	63.9	65.817	69.503	74.011	78.137	77.791	78.336	78.495	78.077	78.359	78.603	79.793	81.55	81.623	79.312	77.358	77.03	74.161	71.868	71.468	72.094	70.845	70.449	65.583	54.454	53.826	52.513	51.298	48.15	43.039	37.277	6.8938	-19.399	-25.356	-29.626	-54.738	-62.339	-68.966	-74.239	-81.079	-86.038	-96.937	-98.917	-100.75	-103.89	-106.1	-108.87	-109.98	-109.54	-109.3	-109.07	-107.88	-105.8	-102.75	-103.71	-102.73	-102.56	-102.71	-104.44	-107.43	-109.7	-110.33	-113.26	-113.71	-113	-111.97	-113.53	-115.11	-114.01	-113.39	-115.24	-116.36	-117.83	-116.78	-117.28	-116.97	-118.54	-119.78	-122.69	-125.01	-126.41	-127.89	-128.64	-130.37	-130.62	-130.94	-132.05	-132.02	-133.53	-133.04	-132.03	-129.01	-127.93	-125.08	-124.28	-124.93	-124.91	-124.31	-124.76	-123.4	-122.7	-121.95	-120.37	-118.55	-117.97	-116.96	-116.21	-115.06	-114.26	-113.02	-111.4	-109.41	-107.45	-105.62	-105.2	-103.11	-101.96	-100.32	-100.26	-98.456	-97.853	-94.93	-92.905	-90.215	-85.464	-82.139	-77.391	-71.543	-64.663	-62.758	-60.422	-59.052	-57.921	-57.279	-57.625	-57.766	-56.083	-55.346	-52.909	-51.588	-50.915	-50.132	-48.628	-47.149	-45.111	-40.815	-38.807	-37.492	-35.442	-32.837	-30.665	-28.405	-25.099	-21.269	-16.478	-14.14	-11.324	-5.7754	-1.6915	3.6282	8.4013	13.479	20.551	27.127	30.184	34.617	39.786	43.345	41.667	39.57	29.974	31.791	31.754	28.578	29.381	31.758	32.23	31.51	34.286	35.944	39.359	38.483	38.58	41.839	45.307	43.459	42.687	41.685	41.659	39.973	38.258	36.211	37.632	36.309	33.238	32.898	31.223	32.096	29.434	26.013	24.421	25.378	24.725	26.271	29.666	30.629	30.404	31.655	29.816	28.694	25.788	20.888	16.424	10.997	5.3091	-2.1276	-8.9488	-17.08	-23.225	-29.713	-37.268	-42.397	-48.509	-54.28	-58.977	-64.89	-69.737	-73.265	-78.268	-83.58	-86.994	-91.496	-97.069	-101.47	-106	-110.45	-113.9	-116.68	-119.45	-121.37	-122.41	-122.11	-119.63	-118.79	-116.57	-114.38	-111.79	-110.39	-109.6	-109.22	-107.91	-107.27	-107.74	-107.96	-108.65	-108.37	-109.2	-111.24	-113.26	-114.25	-115.85
-2172	-2156	-2140.2	-2137.9	-2145.1	-2154.8	-2165	-2176.3	-2191.5	-2205.8	-2212.8	-2227.6	-2240.8	-2247.9	-2250.7	-2251.4	-2251.4	-2247.5	-2242.3	-2237.4	-2233.4	-2219	-2214.5	-2201.4	-2189	-2174.2	-2157.2	-2152.9	-2144.6	-2138	-2130.4	-2120.7	-2109.7	-2086.8	-2080.2	-2065.6	-2052.1	-2036.4	-2018.9	-1998.8	-1979.8	-1962.9	-1943.8	-1904.1	-1887.6	-1870	-1838.2	-1806.2	-1777	-1757.1	-1733.4	-1702.5	-1689.4	-1678.8	-1663.5	-1644.7	-1620.4	-1595	-1568.8	-1545.5	-1507.3	-1451.1	-1419.2	-1339.5	-1261.3	-1222.5	-1097.1	-1001.5	-928.9	-885.84	-802.78	-710.13	-628.13	-537.05	-449.34	-394.75	-329.69	-279.38	-245.13	-218	-194.49	-171.18	-146.91	-128.85	-105.26	-90.319	-78.381	-66.98	-56.892	-46.887	-36.141	-24.58	-12.948	-2.0879	9.0865	22.382	40.822	50.376	54.911	60.618	67.933	71.547	76.954	81.418	82.324	81.644	80.89	80.96	78.61	79.527	81.038	82.914	83.766	83.692	83.181	82.264	83.588	81.627	83.447	84.488	85.619	85.96	82.032	74.1	75.474	76.182	77.691	77.236	74.012	68.977	41.749	17.077	11.205	3.3295	-22.152	-32.768	-36.596	-42.775	-46.98	-52.934	-63.028	-64.197	-62.704	-65.699	-65.882	-64.434	-65.588	-65.699	-62.104	-59.756	-59.808	-59.884	-60.467	-59.461	-59.845	-60.327	-63.155	-63.166	-66.365	-70.625	-72.686	-72.835	-76.114	-78.471	-78.967	-80.269	-80.73	-83.094	-84.425	-85.624	-90.415	-91.534	-93.342	-93.9	-95.018	-96.206	-99.533	-99.567	-102.87	-105.28	-105.07	-105.85	-108.76	-109.5	-110.41	-109.84	-111.4	-113.41	-115.51	-116.19	-116.95	-117.22	-118.25	-118.95	-121.16	-121.54	-121.77	-122.89	-123.33	-124.37	-123.15	-122.61	-121.78	-121.78	-121.94	-121.89	-121.16	-120.02	-119.3	-117.9	-116.06	-114.88	-113.01	-111.22	-110.04	-108.04	-106.81	-105.92	-103.97	-102.45	-100.33	-97.638	-95.201	-91.342	-87.138	-83.202	-77.148	-70.631	-67.025	-64.318	-63.518	-62.733	-61.575	-61.69	-62.211	-61.602	-60.531	-58.436	-58.058	-58.592	-57.162	-56.815	-55.366	-54.217	-51.229	-49.268	-46.294	-46.222	-44.088	-41.72	-39.164	-36.433	-34.204	-30.861	-27.342	-23.59	-20.221	-15.05	-11.383	-6.6455	-0.47481	4.5491	10.499	17.39	22.53	26.313	32.347	33.742	30.771	23.233	20.896	19.887	19.793	17.821	17.552	20.344	22.302	22.768	26.551	27.52	31.198	33.582	34.762	35.872	39.413	39.802	37.339	38.675	39.199	42.072	40.743	39.534	40.896	42.695	40.677	39.719	39.954	40.071	39.494	37.267	35.451	38.509	42.359	44.082	44.956	46.704	48.577	46.734	45.04	41.655	39.526	35.102	28.364	24.149	17.674	11.198	4.1579	-2.9679	-8.7815	-14.329	-21.013	-26.155	-30.629	-35.517	-40.229	-43.901	-47.677	-51.135	-55.653	-58.627	-61.811	-65.757	-69.747	-73.334	-76.372	-79.18	-82.766	-86.258	-88.375	-89.15	-90.236	-91.679	-91.593	-91.41	-91.048	-90.573	-91.443	-92.624	-91.87	-92.489	-93.238	-93.552	-94.621	-94.43	-95.573	-96.843	-98.814	-100.78	-101.77	-103.11
-2223	-2195.2	-2171.6	-2157.9	-2152.1	-2154.6	-2158.3	-2163.4	-2173.4	-2183.2	-2189.5	-2202.5	-2214.3	-2221.4	-2225.1	-2225.9	-2226.1	-2223.6	-2219.8	-2215.9	-2213.9	-2201.9	-2199.8	-2188.7	-2180	-2167.7	-2154.4	-2151.3	-2145.3	-2140.7	-2133.8	-2126.3	-2118.1	-2098.9	-2095.6	-2084.3	-2073.1	-2061.2	-2043.2	-2022.2	-2002	-1982.8	-1958.6	-1916.8	-1895.2	-1874.5	-1841.7	-1810.4	-1780.9	-1761.3	-1737.6	-1709.3	-1697.4	-1683.5	-1669.2	-1651.4	-1629.9	-1603.4	-1578.3	-1554.7	-1518.3	-1463.8	-1429.5	-1352.2	-1274.3	-1230.6	-1111.8	-1016.2	-946.05	-897.57	-815.06	-722.54	-635.93	-543.24	-456.73	-397.24	-331.25	-283.93	-252.09	-230.32	-207.6	-187.52	-165.38	-146.74	-123.53	-110.63	-98.328	-85.272	-72.754	-60.894	-48.679	-35.585	-24.014	-10.608	0.89673	13.618	31.654	44.048	50.219	58.137	66.461	70.254	73.558	77.467	79.824	77.572	75.813	76.381	75.703	74.951	76.929	81.353	81.755	82.955	82.787	85.81	86.017	87.854	88.778	91.882	95.302	97.685	93.993	87.067	91.053	90.408	88.734	90.37	91.001	86.952	63.368	41.135	34.057	27.384	1.2084	-8.5864	-14.422	-19.799	-22.118	-23.252	-31.086	-30.147	-28.972	-30.183	-28.907	-28.236	-28.764	-24.975	-19.759	-16.151	-14.83	-14.919	-15.054	-14.28	-14.21	-16.54	-19.012	-20.738	-24.186	-29.001	-32.213	-33.963	-36.569	-39.913	-43.822	-44.255	-45.214	-48.773	-52.281	-54.885	-57.608	-61.901	-63.588	-65.816	-65.714	-67.698	-71.102	-73.189	-74.425	-77.367	-78.813	-79.328	-81.009	-82.564	-83.148	-83.022	-83.38	-85.509	-88.386	-93.258	-95.664	-99.266	-102.08	-105.94	-107.33	-108.88	-110.23	-111.27	-113.39	-115.58	-116.71	-118.03	-118.52	-119.79	-119.55	-120.25	-120.64	-120.5	-120.24	-119.52	-118.15	-116.93	-116.31	-114.81	-112.52	-111.61	-110.42	-108	-107.08	-105.97	-103.41	-101.11	-98.652	-95.214	-91.699	-87.068	-79.972	-74.366	-71.414	-67.985	-66.259	-66.363	-66.088	-65.821	-66.735	-65.466	-66.414	-64.376	-63.833	-65.019	-65.903	-65.298	-62.307	-62.18	-60.712	-58.486	-55.81	-54.836	-54.87	-53.6	-50.527	-48.155	-47.522	-44.207	-41.178	-38.078	-34.843	-31.297	-28.47	-23.204	-18.287	-12.609	-6.2583	1.0359	7.9579	15.737	20.481	23.815	22.806	15.073	11.491	10.374	6.5047	6.228	6.6531	6.3162	7.6368	12.639	17.679	18.471	21.807	24.969	29.637	30.389	30.995	33.995	35.953	36.715	36.959	39.359	41.296	43.279	44.439	43.783	47.041	47.991	46.952	48.027	47.822	48.384	47.792	49.644	53.606	58.852	60.197	59.472	61.727	60.396	59.955	57.864	53.207	49.545	46.428	40.076	33.874	29.217	23.247	17.173	11.536	5.4453	1.0284	-2.6131	-7.5585	-12.368	-16.11	-19.361	-22.518	-25.659	-28.69	-29.92	-32.624	-35.191	-37.178	-40.344	-41.412	-43.159	-46.313	-49.156	-51.952	-54.308	-57.681	-61.059	-64.476	-66.968	-68.547	-70.562	-73.771	-75.345	-76.739	-77.494	-79.535	-80.205	-81.124	-82.147	-83.587	-84.77	-87.101	-88.226	-90.196	-91.756
-2275.2	-2243.8	-2214.6	-2192.2	-2176.3	-2168.8	-2163.6	-2162.2	-2164.2	-2169.6	-2173.1	-2183.4	-2194.2	-2200.2	-2203.6	-2204.6	-2204.7	-2202.7	-2200.2	-2197.5	-2195.6	-2186.5	-2186	-2178.4	-2172.4	-2163.8	-2153	-2151	-2147.6	-2144.5	-2139.5	-2133.5	-2128	-2111.2	-2108.3	-2099.6	-2092.5	-2080.1	-2062.6	-2039.1	-2015.4	-1993	-1965.6	-1921.3	-1894.5	-1871.9	-1839.2	-1807.3	-1778	-1758.1	-1734	-1707.2	-1693.8	-1679.4	-1662.6	-1645.2	-1626.3	-1600.2	-1577.1	-1555.5	-1520.3	-1464.6	-1428.2	-1349	-1267.8	-1218.1	-1097.1	-999.97	-921.55	-860.66	-774.64	-686.3	-604.62	-518.1	-437.32	-387.86	-336.09	-297.1	-268.75	-245.98	-223.81	-204.05	-182.67	-166.08	-142.19	-128.69	-115.64	-101.55	-87.162	-74.602	-59.696	-45.204	-31.571	-19.711	-6.5853	7.4128	27.032	41.19	48.983	56.1	61.406	66.018	67.759	68.473	69.915	70.624	68.26	67.354	69.456	70.323	71.357	74.228	78.102	79.304	81.349	84.283	88.209	91.474	94.576	99.201	102.53	106.71	104.42	98.388	100.18	101.57	99.612	97.47	98.848	97.153	73.552	53.784	48.433	40.183	17.454	6.8745	0.17758	-6.1235	-8.0419	-12.44	-18.332	-17.017	-17.054	-17.351	-15.037	-12.972	-8.5287	-1.8277	6.4814	12.571	18.73	23.725	24.466	25.655	24.813	21.947	18.938	16.555	11.045	6.3566	4.2173	0.43567	-2.5205	-3.7423	-8.3732	-12.429	-13.427	-14.836	-18.594	-22.613	-25.198	-27.607	-31.798	-33.835	-35.731	-37.351	-41.164	-44.589	-47.274	-47.468	-48.344	-49.766	-50.285	-49.466	-49.375	-48.82	-47.961	-50.349	-56.107	-62.577	-68.079	-74.428	-78.818	-83.476	-88.042	-90.564	-92.973	-96.278	-99.051	-103.34	-106.91	-110.14	-110.95	-111.88	-111.48	-113.35	-112.36	-112.64	-112.45	-113.52	-113.06	-112.36	-111.29	-111.26	-110.93	-110.18	-108.58	-106.86	-106.23	-105.11	-102.94	-100.72	-97.823	-96.153	-92.561	-88.241	-81.714	-76.09	-73.687	-71.996	-69.979	-68.246	-70.422	-70.173	-69.574	-68.635	-69.599	-69.294	-69.054	-70.385	-70.398	-72.195	-71.019	-68.37	-67.153	-66.553	-65.658	-63.974	-63.932	-63.502	-63.074	-60.678	-58.183	-56.783	-55.374	-51.566	-48.896	-46.618	-44.079	-40.804	-34.604	-27.89	-21.941	-14.06	-5.7374	4.2596	11.693	15.56	15.517	9.6123	7.7445	4.843	1.7434	-0.51919	-1.2632	0.28247	1.2852	5.9039	10.779	13.895	16.593	20.545	22.059	25.646	29.801	30.327	31.373	33.973	37.167	36.404	40.248	42.182	46.876	47.964	48.354	49.26	53.748	55.578	54.651	54.985	56.439	60.736	64.477	66.433	69.157	72.033	71.99	70.805	70.649	68.872	66.659	62.416	56.927	54.034	50.06	44.294	38.454	33.344	29.83	24.702	20.223	16.002	12.712	8.0423	3.9989	1.6486	-1.5884	-2.7941	-4.4546	-6.0116	-7.0981	-7.7371	-9.5253	-10.513	-10.349	-11.966	-13.143	-15.903	-19.283	-23.361	-28.971	-34.866	-40.389	-45.044	-49.668	-53.88	-58.323	-61.065	-63.04	-64.897	-66.903	-68.593	-69.744	-71.159	-72.344	-74.58	-75.918	-77.215	-79.609	-80.348
-2318.9	-2281.5	-2247.1	-2219.3	-2196.8	-2181.4	-2170.7	-2164.5	-2161.7	-2163.2	-2164.4	-2172.4	-2180.4	-2185.7	-2187.4	-2187.8	-2186.9	-2185.8	-2183.3	-2182.6	-2182.1	-2174.4	-2175.2	-2170	-2165.1	-2160.6	-2152.6	-2152.4	-2150.6	-2148.6	-2145.4	-2140.3	-2134.6	-2119.7	-2115.5	-2105.3	-2094.7	-2082	-2061.6	-2035.1	-2007.6	-1981	-1951.4	-1907.8	-1878.9	-1855.1	-1824.2	-1794.3	-1766.2	-1745.3	-1721.4	-1693.5	-1678	-1664.8	-1646	-1627	-1607.1	-1583.4	-1557.8	-1536	-1501	-1444	-1399.2	-1316.5	-1230.9	-1171.4	-1049.1	-949.47	-869	-802.71	-718.48	-639.14	-569	-492.27	-420.8	-380.65	-340.77	-307.72	-279.88	-257.95	-236.56	-215.82	-194.9	-177.55	-154.08	-138.81	-124.3	-111.03	-95.516	-80.996	-66.634	-51.538	-37.017	-23.698	-9.4692	5.4958	24.5	36.64	46.164	51.617	57.973	60.463	62.075	62.478	64.08	63.466	62.312	60.462	62.381	64.566	66.031	69.208	73.626	77.854	80.117	84.394	90.483	95.938	101.28	105.8	112	115.6	116.19	109.47	112.21	112.72	112.07	108.24	105.74	104.64	84.492	63.522	57.228	51.89	30.242	20.253	13.193	7.3859	3.4219	-0.51049	-6.727	-6.7631	-3.7751	-4.3622	-2.2441	3.5374	11.831	20.537	29.901	39.488	48.689	55.957	60.068	60.633	58.541	57.011	52.419	47.843	41.475	35.207	30.285	28.142	25.384	23.524	20.514	17.211	16.715	15.951	15.924	12.242	9.4919	6.9446	4.6233	0.18839	-3.7238	-8.2709	-11.321	-15.846	-19.005	-20.963	-19.766	-19.872	-19.934	-19.365	-17.954	-18.203	-19.112	-21.705	-27.442	-35.583	-43.009	-49.29	-55.576	-61.472	-66.483	-68.903	-71.068	-74.381	-77.309	-80.697	-85.387	-89.266	-90.211	-89.751	-91.31	-92.521	-93.922	-92.63	-94.683	-94.653	-96.04	-96.194	-96.362	-97.607	-98.122	-98.482	-97.075	-96.43	-97.336	-97.155	-95.726	-94.974	-92.288	-90.484	-88.154	-84.605	-79.512	-75.507	-74.073	-71.604	-71.804	-72.094	-71.211	-70.948	-71.103	-71.113	-70.615	-71.664	-71.746	-73.522	-74.366	-73.697	-75.451	-76.049	-73.593	-72.743	-73.802	-74.177	-72.988	-72.671	-71.138	-71.706	-69.382	-66.77	-65.03	-65.011	-61.691	-56.883	-55.658	-52.783	-48.367	-40.904	-33.922	-25.846	-17.224	-5.3865	4.3433	10.99	12.7	8.8789	7.5564	6.6105	4.0951	0.66445	-0.32675	0.60342	4.3119	7.7487	11.631	15.068	18.838	22.193	23.898	27.868	29.641	32.462	33.177	33.042	35.255	37.679	41.365	42.279	45.594	48.24	52.256	53.565	53.912	57.708	59.86	59.966	60.832	65.249	70.182	73.991	75.385	76.134	78.774	80.359	77.716	76.093	73.424	71.396	67.722	62.798	58.164	56.294	52	46	44.038	38.832	36.062	32.4	27.322	23.554	21.085	18.378	14.089	14.267	12.037	11.3	10.058	9.1038	8.0642	9.0184	8.4709	7.1435	5.7048	4.0107	0.77637	-3.6575	-9.9331	-16.914	-24.345	-30.591	-36.25	-41.501	-45.923	-49.382	-53.042	-55.116	-57.583	-59.221	-60.84	-62.183	-63.77	-64.76	-66.742	-68.53	-69.744	-69.4
-2359.8	-2317	-2278.4	-2244.3	-2217.1	-2196.7	-2181.8	-2171.4	-2165.2	-2163	-2160.9	-2166.4	-2171.8	-2175.3	-2175.9	-2176.3	-2175.2	-2172.6	-2170.9	-2170.8	-2170.8	-2165	-2168	-2164.8	-2162.6	-2159.7	-2153.4	-2154.2	-2153	-2151.9	-2148.5	-2143.1	-2136.8	-2122	-2115.9	-2103.6	-2090.7	-2076.2	-2050.6	-2019	-1986.4	-1957.8	-1926	-1881	-1849.8	-1825.7	-1797.9	-1771.1	-1746.3	-1727.6	-1703.2	-1670.5	-1653.1	-1636.4	-1616.3	-1591.9	-1569.2	-1543.7	-1515.7	-1488.3	-1447.4	-1388.6	-1337	-1252.5	-1163.2	-1096.8	-975.03	-876.77	-795.87	-731.58	-653.94	-584.96	-527.19	-462.59	-405.82	-374.34	-342	-314.25	-289.88	-266.66	-243.99	-222.55	-200.09	-181.31	-158.64	-142.58	-127.16	-113.55	-99.382	-83.522	-68.15	-54.749	-40.308	-25.597	-11.482	1.6696	20.167	33.055	40.53	47.556	51.7	54.339	55.729	56.139	55.7	54.46	55.036	230.51	228.82	227.61	66.231	65.056	69.207	75.522	80.262	85.847	91.748	99.496	106.84	112.55	119.11	125.43	124.62	122.84	123.09	124.59	123.31	120.7	116.09	113.23	95.652	76.715	67.538	61.696	43.14	33.854	24.529	19.695	17.861	13.217	6.8397	9.3211	10.903	11.674	14.432	19.502	28.172	40.282	49.552	57.823	68.121	76.611	78.903	80.126	79.738	76.568	71.975	67.971	60.489	53.041	48.605	44.407	42.55	39.705	38.32	38.244	39.412	39.869	41.203	42.232	40.668	38.933	37.144	32.615	25.779	20.756	15.038	11.374	7.0419	4.1201	4.5499	6.3032	7.6635	8.4221	8.3139	8.6106	6.7846	2.7132	-3.2348	-9.8577	-18.012	-26.501	-34.089	-40.191	-45.414	-48.575	-51.216	-52.518	-54.667	-57.446	-59.377	-61.602	-63.03	-62.943	-63.588	-64.764	-64.813	-66.702	-67.529	-68.935	-70.86	-72.916	-74.066	-76.758	-77.725	-78.626	-79.49	-79.807	-81.837	-82.967	-82.619	-82.145	-81.552	-80.291	-79.378	-77.007	-74.426	-72.101	-70.624	-69.739	-69.325	-69.854	-70.397	-69.553	-69.435	-70.845	-70.592	-69.874	-71.762	-73.86	-75.523	-75.441	-76.536	-77.069	-78.847	-77.965	-76.689	-78.209	-80.368	-79.4	-77.199	-77.201	-76.869	-75.047	-73.367	-70.538	-68.737	-68.396	-64.362	-61.412	-57.089	-52.504	-44.636	-35.62	-24.687	-14.213	-2.8148	7.0821	11.497	10.027	11.076	12.828	11.079	9.0388	8.0332	8.2777	10.953	13.96	17.712	20.123	23.867	27.995	30.802	32.927	34.041	34.493	35.57	37.258	37.198	37.245	40.847	44.318	45.922	48.144	49.948	53	55.771	55.985	56.821	61.283	64.957	66.528	70.958	73.023	78.212	81.129	80.639	79.785	81.683	80.363	76.406	74.85	70.562	70.07	66.459	61.18	58.067	56.308	52.476	47.249	45.239	41.313	39.184	35.491	31.886	29.123	26.954	25.456	21.826	20.842	19.559	20.44	19.925	18.633	18.355	17.565	16.773	14.231	10.918	6.5683	0.075151	-7.2554	-14.208	-21.245	-27.16	-32.186	-37.437	-41.244	-45.228	-47.878	-49.664	-52.392	-53.725	-55.478	-57.209	-58.205	-59.269	-59.619	-59.703	-59.776
-2392.9	-2348.3	-2306.9	-2268.5	-2237.2	-2213.8	-2195.6	-2181.1	-2172.6	-2166.9	-2163.3	-2165.5	-2168.8	-2170.3	-2171.1	-2169.7	-2168.4	-2166.3	-2164.1	-2163.5	-2164.1	-2159.9	-2163	-2160.9	-2160.8	-2158.6	-2154.3	-2154.8	-2153.1	-2152	-2149	-2143.8	-2136.5	-2120.3	-2109.9	-2093.7	-2075.7	-2053.5	-2023	-1985.4	-1952.6	-1920.5	-1887.3	-1844.3	-1817.4	-1794.7	-1770.1	-1742.7	-1717.1	-1697	-1672.2	-1639.7	-1616	-1594	-1571.2	-1542.8	-1510.6	-1479.4	-1448.7	-1414.7	-1368.7	-1306.4	-1251	-1162.9	-1074.9	-1006.5	-890.25	-795.09	-719.96	-661.19	-591.7	-530.18	-481.72	-429.13	-382.41	-358.22	-332.58	-307.93	-286.15	-263.5	-241	-218.36	-196.1	-179.72	-157.6	-141.56	-126.14	-112.61	-97.597	-81.832	-66.694	-53.986	-40.035	-26.975	-13.466	-0.31786	17.697	30.005	36.971	42.937	47.376	50.134	50.165	49.99	48.954	49.841	240.02	299.84	298.76	298.23	59.764	60.589	65.811	71.478	78.487	87.316	93.524	101.61	111.67	119.99	125.69	132.56	125.31	119.45	119.99	122.42	133.63	131.23	127.57	122.71	105.61	90.818	81.86	73.07	56.163	48.34	39.045	32.379	31.056	27.6	22.162	21.885	25.29	25.298	28.066	32.028	41.119	50.408	58.554	66.69	75.815	82.905	86.915	88.513	89.339	87.411	82.355	77.573	69.565	62.172	56.428	53.623	51.006	50.728	50.021	51.537	53.859	57.912	60.754	64.599	66.25	65.663	63.082	59.383	54.969	48.121	41.239	35.274	32.367	29.675	28.148	28.595	30.815	31.186	30.693	29.938	29.283	26.097	19.867	12.937	5.3773	-3.4261	-10.536	-18.16	-23.786	-26.973	-29.173	-30.597	-31.864	-34.059	-36.054	-37.526	-38.475	-39.653	-41.026	-41.467	-40.874	-41.516	-43.86	-44.651	-45.346	-47.503	-51.098	-53.039	-54.68	-56.104	-58.206	-61.085	-64.178	-65.747	-67.311	-69.188	-68.446	-69.433	-68.611	-67.973	-66.852	-65.385	-65.153	-64.215	-64.067	-64.547	-65.201	-66.035	-66.057	-66.356	-67.948	-68.757	-69.248	-71.53	-73.092	-74.516	-75.384	-77.569	-77.612	-79.016	-79.904	-80.773	-81.341	-82.985	-82.235	-79.359	-79.642	-79.021	-78.904	-76.446	-74.366	-72.438	-72.363	-69.969	-65.588	-62.018	-56.19	-47.422	-36.211	-23.792	-11.643	-2.1294	5.4728	8.8438	12.258	14.93	15.533	15.754	15.533	15.394	17.695	19.876	22.551	24.468	28.548	31.833	34.272	36.096	36.966	36.316	36.688	36.178	37.095	38.682	40.487	41.875	44.62	46.673	46.122	49.102	49.904	52.582	54.712	56.007	58.683	63.67	68.012	69.597	73.637	76.576	79.75	79.393	76.807	76.425	76.595	74.141	70.931	68.805	65.686	65.331	60.676	57.093	54.102	52.406	49.598	46.629	43.47	40.933	39.901	35.47	31.824	29.166	27.24	24.926	23.551	22.882	23.025	23.191	23.126	21.624	20.637	19.009	15.252	10.635	4.5833	-1.8462	-7.8413	-14.742	-21.232	-26.763	-31.636	-35.586	-39.355	-42.078	-44.779	-46.381	-48.08	-49.837	-51.534	-52.952	-52.622	-52.762	-53.179	-52.451
-2410.1	-2365.6	-2324.1	-2287.8	-2255.3	-2229.6	-2208.9	-2192.2	-2181.5	-2173.7	-2168	-2168.6	-2170.1	-2169.5	-2168.9	-2166.2	-2164.5	-2162.1	-2159.8	-2159.7	-2160.5	-2157.4	-2160.4	-2160.1	-2158.8	-2157.1	-2152.6	-2154	-2151.4	-2150.2	-2145.9	-2139.4	-2129	-2110.9	-2097.1	-2077.2	-2052.2	-2022.6	-1985.9	-1948.1	-1911.3	-1877.7	-1844	-1804.2	-1778.2	-1757.5	-1730.8	-1704.4	-1678	-1655.4	-1627.6	-1594.8	-1566.8	-1539.5	-1509.9	-1476.4	-1439	-1398	-1358.1	-1317.8	-1266.7	-1197.4	-1137.5	-1051.4	-971.12	-908.02	-803.62	-716.14	-648.62	-596.27	-534.26	-477.56	-433.09	-390.21	-353.22	-338.31	-316.19	-295.62	-275.54	-255.47	-233.78	-210.65	-185.06	-168.15	-148.74	-133.44	-119.25	-106.14	-92.754	-79.751	-66.379	-52.901	-40.734	-28.159	-14.136	-1.216	14.614	27.098	35.182	39.724	44.137	45.688	47.233	46.177	45.731	44.705	42.691	41.91	42.961	44.469	49.24	53.764	60.889	67.199	76.149	85.494	95.342	104.92	115.14	125.06	133.11	123.92	122.99	119.02	118.47	120.31	122.34	125.53	136.91	132.36	117.41	101.9	95.408	86.844	69.342	60.847	53.812	46.875	43.262	41.412	37.23	36.349	35.83	37.096	37.963	43.011	45.859	53.401	60.192	67.496	73.04	79.183	83.416	86.014	84.621	83.773	81.894	76.362	70.897	64.073	60.929	58.207	55.66	55.712	56.28	58.232	62.801	66.193	71.329	76.206	79.285	79.652	77.356	74.722	70.493	66.126	59.352	54.304	51.244	51.026	50.159	51.151	50.601	52.852	52.588	51.952	49.946	47.171	43.397	36.764	29.625	21.734	15.224	6.3704	1.0245	-4.0509	-5.6651	-9.1996	-11.926	-13.485	-14.734	-15.87	-18.411	-19.927	-21.93	-21.585	-22.085	-22.89	-24.589	-24.988	-27.009	-29.468	-31.214	-32.553	-34.048	-37.329	-39.741	-43.217	-46.909	-50.35	-52.564	-54.846	-56.692	-57.741	-58.396	-58.306	-57.083	-56.038	-57.053	-57.024	-57.097	-57.208	-59.066	-59.625	-61.354	-62.222	-63.282	-63.649	-65.082	-66.839	-68.333	-70.65	-72.604	-74.221	-74.589	-75.424	-77.913	-80.159	-80.16	-79.62	-80.944	-82.042	-80.224	-80.073	-80.394	-79.621	-79.385	-78.731	-76.863	-78.511	-77.563	-73.147	-67.407	-61.061	-52.647	-40.053	-27.296	-14.482	-7.5988	-3.0589	4.6092	10.255	10.892	11.705	13.415	13.827	16.256	17.24	19.849	24.24	27.246	29.721	31.553	33.701	34.45	34.812	34.274	32.718	33.505	35.407	36.645	37.347	37.614	39.036	41.476	42.469	42.793	44.709	47.091	49.244	51.294	54.485	59.068	62.871	65.814	67.692	69.811	71.715	73.022	71.697	69.119	68.303	66.861	63.809	61.783	59.611	57.099	55.648	52.717	50.104	49.184	47.822	45.406	41.81	39.854	37.308	34.742	30.911	27.444	26.504	25.301	24.295	23.293	24.056	25.171	24.167	22.697	20.763	17.534	12.936	7.1284	0.80392	-5.3047	-11.842	-18.076	-23.145	-27.78	-32.195	-34.88	-38.379	-40.176	-43.184	-44.422	-46.206	-48.298	-48.647	-48.334	-48.503	-47.88	-47.394
-2417.4	-2374.7	-2336	-2301.3	-2270.5	-2242.7	-2221	-2203.6	-2191.3	-2182.6	-2175.8	-2174	-2173.1	-2171.4	-2168.6	-2166	-2162.4	-2160	-2157.5	-2157.3	-2158	-2154.6	-2157.1	-2156.8	-2155.5	-2154	-2149.5	-2149.2	-2145.8	-2142.5	-2136.1	-2125.7	-2112.1	-2090	-2072.2	-2047.2	-2018.3	-1982.5	-1944.7	-1906.9	-1870	-1834.1	-1800.2	-1760.2	-1734.3	-1710.7	-1681.3	-1653.1	-1625.7	-1598.8	-1567.9	-1532.5	-1501	-1466.4	-1427.8	-1388.5	-1343.4	-1293.2	-1242.6	-1195.7	-1139.8	-1072.5	-1013.7	-939.22	-866.36	-810.17	-719.98	-642.98	-581.38	-532.4	-478.29	-431.85	-392.43	-354.01	-326.28	-317.95	-298.53	-277.12	-254.52	-236.81	-218.26	-193.46	-165.31	-150.73	-134.58	-122.21	-109.22	-97.216	-86.259	-74.043	-62.524	-51.128	-39.756	-27.989	-14.62	-1.0222	13.533	25.406	33.609	37.92	41.045	42.981	43.974	43.252	40.686	39.987	39.3	39.52	38.919	40.636	44.99	50.682	56.116	63.897	73.725	84.568	95.553	106.62	118.44	129.26	123.97	123.62	122.14	118.91	119.15	119.64	122.16	125.19	127.15	129.27	125.04	112.36	105.83	98.485	82.002	73.239	66.783	61.192	56.114	52.439	48.131	47.564	45.54	43.603	45.893	47.459	50.239	55.157	61.65	68.866	75.365	79.767	83.579	85.887	84.892	81.652	77.863	74.426	68.652	64.208	61.52	60.47	59.146	59.3	60.494	63.049	66.866	71.596	76.214	80.186	82.849	84.486	84.216	81.504	78.004	75.023	71.859	67.515	65.998	66.574	68.564	70.04	70.982	71.65	73.659	73.438	72.044	68.046	64.801	59.362	52.021	44.875	37.562	30.145	22.265	17.765	14.607	12.856	10.025	7.65	6.3476	5.5771	2.0982	-1.2473	-3.6264	-4.2961	-5.4133	-7.3302	-9.6531	-11.085	-12.747	-13.664	-15.032	-15.476	-16.501	-19.129	-22.14	-25.115	-29.156	-33.235	-36.233	-39.963	-42.807	-44.37	-46.076	-47.157	-46.536	-45.811	-47.486	-47.019	-49.042	-49.65	-51.106	-53.443	-55.088	-56.804	-57.566	-58.241	-59.823	-61.763	-63.82	-65.355	-67.467	-68.015	-68.915	-70.09	-71.9	-73.175	-75.722	-76.851	-76.88	-78.012	-79.933	-80.862	-80.309	-81.535	-83.011	-84.819	-83.573	-83.862	-83.416	-83.348	-80.213	-72.944	-66.786	-58.37	-47.458	-34.875	-25.117	-18.64	-12.351	-5.4013	-0.095633	1.6739	2.9272	3.5801	6.0666	8.7768	11.317	13.139	17.205	20.519	22.416	22.769	24.237	26.464	27.141	27.506	27.635	28.678	30.602	30.282	30.139	30.284	31.248	32.83	34.139	34.11	35.602	38.566	41.758	45.772	48.343	51.984	55.316	58.173	59.052	60.582	61.634	61.386	60.857	58.933	56.956	55.594	54.308	53.137	51.039	48.635	47.308	46.356	44.984	43.285	41.352	40.101	37.183	34.874	32.296	30.184	28.091	26.556	25.142	24.183	23.927	23.653	23.873	23.8	22.682	20.623	16.859	12.185	7.0323	2.0906	-4.9171	-11.258	-16.64	-22.465	-25.625	-30.302	-33.09	-36.436	-38.169	-40.64	-42.036	-43.993	-46.031	-46.307	-46.552	-45.988	-45.438	-43.937
-2418.4	-2378.5	-2340.6	-2308.8	-2278.2	-2251.7	-2229.1	-2211.6	-2199.1	-2189.3	-2181.4	-2178.6	-2176	-2172.3	-2169.4	-2164.6	-2162	-2158.6	-2156.3	-2154	-2154.6	-2151.2	-2152.9	-2152.5	-2151.1	-2147.7	-2142.3	-2140.1	-2133.9	-2126.5	-2116.8	-2102.4	-2082.9	-2055.9	-2032	-2003.1	-1971.2	-1936.1	-1898.3	-1860.4	-1823.5	-1788.6	-1752.7	-1712.7	-1680.7	-1651.9	-1620.4	-1588.7	-1557.4	-1524.8	-1489.5	-1454.4	-1418.6	-1376.7	-1330.8	-1282.5	-1232.9	-1175.1	-1114	-1061.5	-1008.5	-947.65	-896.79	-830.16	-768.32	-719.18	-641.16	-573.25	-515.13	-467.99	-417.84	-378.88	-350.39	-304.98	-273.67	-258.44	-236.21	-217.2	-197.77	-175.45	-171.21	-156.67	-141.28	-133.32	-121.73	-109.95	-99.234	-88.125	-77.445	-67.631	-58.299	-47.585	-36.341	-24.422	-12.966	-1.3337	12.895	23.696	29.92	34.661	39.339	40.868	39.999	38.725	39.028	37.591	36.915	36.632	35.913	36.636	41.262	47.081	53.357	61.25	71.891	83.665	95.119	107.62	120.7	131.19	123.11	124.29	122.42	119.47	119.39	120.86	122.03	124.65	126.96	127.39	132.79	120.92	114.49	106.46	93.001	85.074	78.952	73.067	69.119	62.945	58.467	56.999	55.57	51.394	51.521	54.387	56.727	61.661	66.861	74.041	80.314	85.175	85.299	85.713	84.228	80.591	74.139	71.502	68.65	63.596	60.384	60.386	59.437	59.694	61.791	63.913	68.641	72.596	76.169	78.868	81.342	83.6	84.462	83.094	80.17	78.35	76.095	73.677	73.066	75.098	77.924	80.448	82.377	84.102	85.533	87.555	87.301	84.15	81.426	77.695	72.257	64.387	56.735	49.009	43.56	37.741	33.831	31.247	29.612	26.904	25.641	23.286	19.961	15.493	12.364	9.9206	8.2689	6.0888	3.6738	1.2848	0.81585	1.1626	0.41956	0.26464	-0.74556	-1.0183	-3.4772	-6.5388	-9.4514	-13.189	-17.35	-22.147	-25.748	-28.013	-29.712	-32.826	-33.686	-34.389	-36.236	-37.964	-40.099	-42.195	-43.976	-45.605	-48.288	-49.982	-50.788	-51.68	-53.354	-55.858	-57.351	-59.784	-59.904	-61.074	-62.359	-63.015	-64.97	-66.588	-67.894	-71.225	-73.629	-74.621	-76.576	-78.983	-81.868	-81.594	-81.993	-84.523	-85.954	-86.919	-87.56	-86.656	-87.273	-85.599	-79.951	-73.068	-66.346	-58.173	-47.814	-39.828	-30.654	-24.601	-19.276	-13.693	-9.7059	-9.0451	-7.2538	-3.6898	-0.71381	1.5727	2.7667	4.4534	7.81	9.9483	11.531	12.733	16.151	18.545	19.646	19.154	20.393	20.7	21.351	20.764	21.088	21.783	22.635	23.325	25.022	26.655	28.966	33.554	37.092	39.441	42.746	44.54	46.587	48.968	48.913	48.714	48.714	48.132	46.245	44.911	43.945	43.184	42.621	40.334	39.024	38.622	37.577	36.704	34.454	32.506	31.859	30.863	28.874	26.808	25.198	24.752	23.237	23.214	21.941	21.336	22.301	20.745	19.565	17.655	14.614	10.669	5.4598	-0.54879	-6.1646	-11.941	-17.196	-22.974	-26.018	-29.421	-33.336	-35.927	-37.622	-40.077	-41.269	-42.824	-44.783	-45.274	-45.753	-45.506	-44.283	-42.874
-2413.3	-2378.7	-2345	-2314.3	-2286.6	-2261.1	-2238.6	-2220.2	-2205.7	-2195.1	-2186.4	-2180.7	-2177.2	-2172.6	-2167.7	-2162.8	-2158.9	-2155.3	-2151.9	-2150.5	-2149.3	-2146	-2146.6	-2144.3	-2141.1	-2135.9	-2128.4	-2121	-2111.5	-2098.2	-2081	-2059.8	-2034.6	-2002.4	-1974.2	-1942.2	-1909.3	-1871.3	-1832.5	-1793.6	-1755.6	-1720.7	-1686.7	-1647.5	-1614.2	-1581	-1544.9	-1506.6	-1465.9	-1426.3	-1391.4	-1344	-1296.4	-1247.3	-1195.7	-1141.3	-1088.3	-1036.6	-987.66	-929.47	-878.45	-824.33	-776.25	-718.68	-664.15	-620.86	-556.74	-498.94	-446.21	-400.11	-347.4	-308.14	-276.05	-241.48	-211.55	-191.37	-174.55	-164.35	-156.26	-151.65	-141.34	-130.16	-122.56	-115.41	-106.73	-98.033	-89.338	-78.835	-69.024	-60.313	-50.83	-41.916	-32.992	-23.094	-12.847	-1.754	10.141	19.187	25.893	30.712	34.459	36.1	37.061	37.395	35.584	34.351	33.978	33.614	34.874	37.985	41.643	47.996	54.517	62.523	71.085	82.295	95.904	108.4	120.16	130.92	124.06	124.2	123.42	119.77	120.23	122.13	123.86	124.18	125.55	128.54	124.33	126.89	120.76	115.84	103.58	96.752	90.105	85.132	80.781	76.404	70.021	68.016	66.072	63.413	62.564	64.794	66.909	69.892	74.602	78.395	82.408	82.652	83.419	82.845	82.62	80.092	75.177	70.1	67.531	65.626	62.354	58.543	59.406	61.388	62.419	63.78	66.912	70.79	73.664	76.151	77.139	79.678	81.199	82.385	81.887	81.007	80.923	80.664	80.572	82.467	84.245	86.055	87.989	90.075	91.843	93.504	95.594	94.638	91.693	88.489	83.587	79.056	73.579	69.102	64.277	60.041	54.815	51.044	48.261	47.328	45.074	41.951	37.256	33.388	29.482	24.83	22.22	19.826	17.829	15.907	15.082	15.133	16.082	16.173	15.833	15.706	14.639	13.8	11.799	8.7894	6.0312	1.8383	-2.7814	-7.232	-10.536	-13.566	-16.13	-20.096	-24.368	-27.991	-30.747	-33.186	-35.921	-37.851	-39.317	-42.075	-44.159	-45.712	-46.459	-49.343	-51.622	-52.109	-52.869	-54.252	-55.991	-57.718	-59.746	-61.558	-63.29	-66.356	-68.638	-71.057	-73.576	-76.107	-77.273	-79.834	-80.782	-81.201	-84.084	-85.833	-87.413	-87.827	-87.762	-88.114	-87.856	-83.342	-78.394	-74.373	-69.436	-64.243	-55.337	-46.958	-40.024	-35.571	-29.369	-22.505	-18.823	-17.424	-14.96	-11.229	-10.359	-7.3619	-7.0801	-4.4692	-1.2348	1.2982	2.2152	3.3649	5.1112	6.2986	8.9073	8.1931	9.4459	10.889	10.734	10.382	9.9452	12.773	13.661	15.684	16.947	20.611	23.92	27.059	29.206	31.346	32.996	34.307	35.288	35.374	34.237	34.202	33.576	33.234	31.909	31.67	31.106	31.154	29.94	28.542	27.567	27.742	26.505	25.1	23.813	22.804	22.043	21.528	20.117	19.956	19.296	18.745	18.117	16.78	16.745	14.77	14.524	11.683	8.74	5.2696	0.73149	-4.1375	-9.5877	-14.015	-18.867	-23.372	-26.458	-30.015	-34.014	-36.471	-38.998	-40.713	-41.933	-44.327	-44.907	-46.493	-46.357	-46.187	-44.943	-43.425
-2386.2	-2354.5	-2325.8	-2299	-2274.5	-2253	-2232.3	-2216.3	-2203.3	-2193.7	-2185.4	-2180.2	-2175.9	-2170.3	-2164.3	-2158.3	-2153.6	-2149.1	-2144.9	-2142.7	-2140.5	-2137.3	-2136.8	-2133	-2127.5	-2121.1	-2112.8	-2101.6	-2085.4	-2065.2	-2039.9	-2010.7	-1979.5	-1944.3	-1909.3	-1870.3	-1831.4	-1791.4	-1752.5	-1713.5	-1675.6	-1637.6	-1600.4	-1562.2	-1527	-1490.6	-1451.7	-1409	-1359.7	-1312.4	-1257.8	-1196.2	-1140.6	-1086.2	-1032.3	-979.05	-926.98	-881.29	-836.56	-797.18	-760.08	-714.59	-669.84	-617.74	-567.55	-525.98	-473.04	-419.89	-367.94	-324.55	-284.74	-250.16	-223.1	-198.41	-175.15	-158.27	-147.86	-145.42	-142.45	-135.48	-127.49	-118.52	-109.5	-102.67	-93.825	-86.048	-77.149	-69.21	-60.541	-53.141	-46.347	-38.47	-30.604	-21.092	-12.285	-2.2526	8.9785	17.107	23.306	28.191	31.368	33.247	33.625	32.704	31.597	31.793	30.522	31.668	32.839	36.109	40.344	46.972	54.029	61.476	70.692	82.663	94.505	107.21	119.97	131.56	123.91	123.86	122.51	121.44	122.05	123.64	123.9	125.38	126.76	128.21	125.36	132.74	127.42	121.81	111.96	105.07	99.692	94.198	89.642	85.681	79.964	76.914	74.771	73.624	72.502	71.551	74.737	78.905	80.121	82.344	84.351	86.762	86.575	85.751	83.612	80.696	77.86	73.085	66.425	64.519	62.426	59.379	57.923	60.187	62.45	62.734	65.436	68.009	71.085	73.056	75.391	77.932	80.113	81.094	81.735	81.125	81.068	82.153	83.18	85.07	86.971	90.142	91.568	93.942	95.962	98.199	98.939	100.29	99.216	96.072	92.361	88.573	86.453	82.192	78.949	75.545	72.958	69.473	67.375	65.08	63.131	59.351	54.211	49.417	44.396	41.04	36.037	32.794	30.081	29.803	28.806	28.72	29.871	31.118	32.139	31.954	32.597	32.956	32.687	30.905	27.75	23.702	19.142	14.94	9.6752	4.5246	-0.51598	-6.6998	-13.33	-17.862	-21.145	-23.76	-26.715	-30.345	-32.951	-34.772	-37.169	-38.765	-42.065	-43.924	-44.588	-46.156	-47.217	-49.617	-50.465	-52.048	-53.845	-57.095	-59.448	-61.687	-63.808	-67.114	-69.611	-71.22	-73.155	-74.051	-76.987	-78.675	-79.461	-80.743	-83.382	-85.624	-88.587	-89.949	-90.229	-90.777	-92.499	-90.166	-86.484	-83.313	-77.618	-69.249	-60.84	-52.463	-46.186	-40.972	-33.924	-29.358	-26.684	-25.421	-23.115	-20.241	-18.317	-16.746	-14.982	-12.124	-9.4143	-9.2753	-9.7194	-6.6995	-3.9816	-3.6186	-2.4393	-1.7525	-0.9281	0.48727	0.49264	0.39345	2.8244	5.1728	5.3091	8.4673	10.633	12.555	16.298	18.002	18.624	19.55	21.506	20.556	20.734	19.415	19.858	19.719	20.466	19.039	19.25	19.168	17.904	18.141	17.507	17.819	17.353	15.961	14.645	14.177	14.292	13.827	14.066	13.885	12.929	12.764	12.295	11.27	10.391	9.1611	8.1836	6.1156	3.5411	0.14856	-4.2718	-8.6473	-12.977	-16.913	-21.421	-24.969	-28.161	-31.479	-34.592	-37.052	-39.175	-40.744	-43.232	-45.794	-47.368	-48.893	-49.669	-49.737	-48.285	-46.459
-2346	-2320.6	-2297.1	-2275.6	-2254.2	-2235.3	-2219.3	-2205.4	-2195.4	-2187.9	-2180.6	-2174.9	-2168.2	-2162.7	-2156	-2150.8	-2145.6	-2140.3	-2136	-2132.3	-2128.7	-2125.2	-2122.8	-2118.6	-2112.3	-2104.8	-2093.6	-2078.3	-2056.2	-2027.2	-1995.1	-1958.9	-1920.7	-1879.4	-1836.4	-1792.4	-1748.5	-1706.5	-1665.5	-1625.5	-1584.6	-1545.6	-1505.4	-1463.9	-1425	-1381.5	-1336.1	-1289.2	-1236.3	-1178.3	-1113.9	-1052.5	-993.29	-937.3	-887.47	-839.43	-794.23	-752.49	-718.22	-688.27	-653.97	-615.1	-575.55	-530.48	-483.3	-441.28	-393.46	-345.55	-301.71	-265.02	-232.43	-205.51	-183.16	-167.28	-152.66	-143.45	-138.44	-136.99	-133.66	-126.79	-118.33	-109.64	-101.05	-93.337	-84.13	-76.512	-68.544	-62.389	-55.473	-48.768	-42.481	-37.465	-29.82	-21.901	-12.279	-3.8121	4.754	13.005	19.371	24.033	27.451	28.92	29.93	29.746	29.656	28.975	29.154	29.849	31.323	35.953	40.559	45.992	52.759	61.527	71.387	80.767	93.424	107.56	119.34	129.4	123.01	123.63	123.12	122.75	123.76	125.49	125.89	126.33	127.74	128.03	127.75	136.42	130.25	124.65	118.56	112.14	107.06	101.52	96.92	92.847	87.946	85.416	83.331	81.507	80.546	80.966	81.985	85.011	86.969	87.847	89.088	90.287	90.55	88.362	86.764	83.086	78.143	73.207	67.809	63.905	61.592	60.113	58.89	58.282	59.563	61.922	62.771	65.093	67.985	71.919	73.641	75.231	75.528	77.118	79.197	80.001	79.598	81.777	83.355	86.595	88.282	90.889	92.438	95.516	97.818	99.353	100.4	100.63	101.03	100.54	97.206	94.963	93.637	91.968	90.434	88.703	88.479	87.499	85.859	82.782	80.843	76.657	71.918	65.394	59.514	54.252	50.864	45.702	43.035	41.1	41.063	41.402	42.18	43.647	44.258	45.569	44.785	46.191	47.42	46.432	43.996	39.105	35.132	30.395	25.202	18.813	11.417	3.6059	-2.7427	-7.432	-11.803	-14.646	-18.652	-22.214	-26.269	-28.872	-31.125	-33.384	-36.292	-37.749	-38.855	-39.714	-42.071	-43.961	-45.232	-47.681	-49.468	-52.324	-54.576	-57.555	-59.152	-60.911	-64.707	-66.088	-68.274	-70.555	-71.967	-72.402	-74.879	-76.617	-78.516	-81.134	-83.485	-86.91	-89.664	-92.465	-95.268	-96.482	-96.222	-92.878	-88.165	-82.948	-76.663	-67.585	-59.742	-53.183	-48.118	-43.538	-39.357	-35.535	-34.857	-33.603	-29.871	-28.938	-26.17	-25.024	-23.322	-20.684	-18.562	-17.31	-16.934	-13.902	-12.791	-10.793	-10.594	-10.44	-8.7271	-6.5727	-6.4317	-7.4857	-4.3355	-2.3871	-1.1279	0.91136	2.6226	3.5871	6.8287	6.5859	6.317	7.2441	7.8277	6.2938	7.1958	7.2861	6.7002	8.6328	7.9944	7.1851	7.6384	8.6793	6.9535	8.1255	7.2131	6.5732	7.2216	6.9802	6.1803	6.5641	7.7024	6.514	6.3655	6.0688	5.6295	5.3792	4.6526	3.2526	2.65	1.2527	-1.1873	-4.3558	-8.4872	-13.226	-16.123	-19.437	-22.918	-26.621	-29.645	-31.811	-34.615	-37.125	-39.148	-41.531	-43.991	-46.777	-49.71	-52.182	-53.816	-54.805	-54.282	-53.324
-2298.4	-2276.9	-2257.4	-2240.7	-2225	-2210.2	-2198.2	-2189.3	-2182.3	-2176.7	-2171.2	-2165.8	-2159.3	-2153	-2146.7	-2140.5	-2135.3	-2129.9	-2124.5	-2120	-2115.5	-2112.1	-2106.6	-2101.2	-2093.7	-2084.2	-2069.2	-2049.2	-2022.2	-1990.2	-1953.1	-1911.6	-1868.2	-1820.9	-1771.8	-1721.8	-1673.9	-1627.9	-1581.9	-1534.9	-1488.9	-1441.6	-1394.3	-1345.4	-1301.4	-1251	-1202.9	-1154	-1102.2	-1046	-987.29	-931.32	-879.46	-826.92	-783.06	-738.22	-695.74	-658.04	-624.04	-593.93	-563.06	-529.07	-493.48	-451.36	-406.38	-367.32	-328.84	-291.19	-256.3	-226.33	-200.82	-179.26	-166.15	-158.95	-150.97	-144.91	-139.92	-136.27	-130.86	-124.12	-115.28	-106.56	-97.083	-87.872	-80.008	-72.361	-66.05	-59.817	-54.231	-49.475	-44.181	-39.355	-32.668	-24.312	-15.601	-6.9266	0.34614	7.3864	14.525	19.473	23.627	26.352	27.542	28.619	27.306	27.38	27.657	29.453	31.335	34.752	40.131	45.429	52.556	60.878	70.438	80.851	93.433	104.91	116.36	125.8	121.58	122.55	123.19	123.74	124.53	125.59	126.64	126.91	127.53	128.08	128.51	135.81	131.81	126.22	121.96	116.49	111.89	106.52	102	98.5	94.567	91.287	90.001	88.075	88.359	88.873	89.935	90.648	92.426	94.37	94.209	92.761	93.026	91.719	88.91	84.241	80.034	74.517	70.682	66.567	62.085	60.227	59.631	58.644	57.477	59.597	61.672	63.842	65.64	68.093	69.958	71.778	72.71	73.168	75.314	76.921	77.923	79.991	82.491	84.58	86.835	89.07	92.244	94.536	97.042	97.83	99.603	101.16	101.28	100.17	99.428	99.058	97.278	98.087	98.223	97.783	97.5	98.918	98.314	98.032	94.467	91.068	86.364	80.93	74.197	68.863	63.326	59.214	56.084	52.723	51.855	50.705	51.116	50.809	51.874	51.654	50.73	51.316	52.114	50.777	50.134	46.954	42.249	37.771	32.964	26.9	19.578	12.41	6.2718	1.7386	-2.6955	-6.6852	-10.648	-14.822	-19.416	-22.708	-24.887	-27.88	-29.277	-31.564	-33.151	-35.406	-36.911	-37.552	-39.6	-42.18	-44.343	-46.318	-49.117	-51.565	-53.401	-55.99	-58.328	-61.66	-62.814	-65.271	-66.779	-68.692	-70.677	-72.671	-74.338	-76.367	-78.429	-82.112	-85.52	-89.673	-93.685	-95.344	-95.705	-95.966	-92.283	-87.012	-82.046	-76.628	-70.206	-63.273	-58.337	-53.307	-51.474	-47.745	-44.178	-42.129	-42.208	-41.374	-37.174	-35.221	-33.646	-32.564	-29.433	-26.389	-24.936	-24.486	-23.355	-20.178	-19.556	-17.419	-17.733	-16.029	-15.101	-13.586	-14.343	-14.016	-10.531	-9.758	-8.4502	-7.5392	-5.9586	-5.3198	-3.6394	-4.258	-5.2259	-4.0666	-3.2289	-3.9642	-3.4733	-3.2856	-3.5431	-1.2818	-1.7101	-2.0826	-0.63162	0.33797	-0.70152	-0.071404	-0.82832	-0.044739	0.31225	1.3264	-0.16862	0.30047	0.25372	0.25059	-0.17922	-0.15926	-0.87839	-1.2565	-2.3476	-3.2533	-6.4555	-8.2494	-11.285	-14.584	-17.328	-20.081	-23.368	-25.647	-27.717	-29.902	-32.398	-34.992	-37.282	-40.35	-42.973	-47.953	-51.871	-56.336	-59.812	-62.617	-65.019	-66.332
-2260.5	-2242.9	-2228.4	-2216	-2203.5	-2192.9	-2184.2	-2177.4	-2171.7	-2167.1	-2161.7	-2155.2	-2148.7	-2142.3	-2135	-2128.7	-2122.2	-2115.8	-2110.4	-2104.9	-2100.4	-2094.9	-2088.5	-2082	-2072.5	-2059.1	-2041.1	-2017.1	-1988.1	-1954.1	-1914	-1869.8	-1821.6	-1769.2	-1715.9	-1661.9	-1608.9	-1555.9	-1501.9	-1447.5	-1390	-1332.7	-1276.4	-1221.7	-1171.5	-1117.8	-1069.8	-1020.8	-973.13	-925.11	-876.86	-828.61	-784.63	-739.64	-699.91	-656.36	-615.46	-577.17	-544.18	-514.66	-483.96	-452.8	-417.82	-377.37	-338.56	-303.63	-271.74	-242.03	-215.09	-192	-172.35	-160.13	-157.23	-153.81	-150.58	-146.98	-143.39	-138.48	-131.67	-124.56	-115.04	-104.65	-94.534	-86.176	-78.313	-69.893	-63.928	-58.818	-55.369	-51.339	-47.455	-42.611	-37.034	-30.528	-22.128	-13.383	-5.5252	2.4848	9.3184	14.916	19.321	22.467	24.757	26.27	26.393	26.769	27.415	28.81	30.025	33.562	39.054	45.501	51.629	59.977	69.109	78.729	89.975	101.33	111.83	120.94	128.45	121.07	121.66	122.4	123.31	124.87	126.07	126.36	126.49	127.24	135.05	132.14	127.68	124.72	119.91	115.52	110.93	106.47	102.18	98.694	96.666	95.176	92.902	91.224	91.924	91.926	92.785	93.028	94.379	94.611	94.543	94.533	92.737	90.483	88.097	83.942	78.7	74.342	70.191	65.836	62.426	58.894	57.364	57.242	56.595	56.172	58.266	60.768	61.492	63.087	65.212	66.714	68.162	69.685	70.93	73.22	74.594	76.892	77.756	80.237	83.191	86.535	88.5	91.101	94.282	96.135	97.984	99.143	99.748	101.24	101.3	100.74	100.1	101.1	102.23	104.26	105.55	106.6	107.04	107.28	106.13	103.68	99.49	93.881	88.806	82.346	76.041	71.618	66.885	63.206	59.864	57.8	57.568	57.367	55.274	53.034	52.172	51.79	51.755	51.198	49.475	46.597	43.779	40.049	36.022	31.517	26.26	19.142	13.313	8.4675	4.6087	0.32231	-3.8177	-8.62	-12.071	-15.095	-18.894	-22.079	-24.426	-25.651	-27.75	-30.458	-31.875	-32.18	-34.204	-36.818	-39.855	-41.534	-42.873	-45.064	-48.033	-50.909	-52.639	-55.029	-57.187	-61.226	-62.965	-64.661	-66.169	-67.714	-70.205	-72.203	-74.664	-76.875	-79.641	-84.326	-87.814	-89.152	-89.597	-90.219	-89.488	-86.999	-82.94	-78.639	-74.424	-70.724	-65.549	-61.896	-59.047	-57.508	-55.627	-52.658	-50.71	-50.143	-47.978	-44.808	-42.699	-39.832	-37.715	-36.284	-34.153	-30.12	-28.782	-28.065	-26.927	-23.758	-24.204	-22.426	-22.589	-21.824	-19.677	-18.342	-18.661	-17.969	-14.787	-14.204	-14.059	-14.167	-12.534	-12.4	-11.387	-12.321	-12.366	-10.772	-10.322	-10.526	-10.224	-8.736	-8.2517	-6.0687	-6.2916	-5.7915	-4.648	-4.6468	-4.4278	-3.7011	-3.7204	-2.8573	-2.9818	-3.6296	-3.336	-2.9517	-2.7984	-3.7755	-3.7398	-4.2917	-5.6245	-7.096	-8.7021	-10.832	-13.512	-16.255	-18.092	-21.022	-23.44	-25.577	-27.652	-28.83	-31.467	-33.917	-37.262	-40.341	-45.006	-50.879	-56.883	-62.376	-68.51	-74.083	-79.916	-85.396
-2227.4	-2213.9	-2202.4	-2191.9	-2182.5	-2174.9	-2168.2	-2163.4	-2158.7	-2154.1	-2148.4	-2141.7	-2135	-2128.3	-2121.1	-2114.8	-2108.6	-2102.4	-2096.9	-2090.5	-2085	-2079.5	-2073.2	-2065	-2052.8	-2038.6	-2018.3	-1995.3	-1964.3	-1928.3	-1887.2	-1840.7	-1789.3	-1733.8	-1675.6	-1615.6	-1554.6	-1494.6	-1432.6	-1368.4	-1302.2	-1234	-1168.8	-1107.8	-1055.8	-1004.9	-959.27	-913.74	-871.48	-830.2	-791.77	-754.84	-718.12	-676.64	-634.37	-591.2	-550.19	-512.58	-479.79	-450.03	-420.02	-390.37	-358.52	-325.77	-294.9	-266.9	-240.74	-217.74	-197.72	-182.08	-169.33	-162.8	-159.33	-156.09	-155.24	-153.48	-150.8	-145.89	-138.33	-129.54	-118.83	-108.65	-98.642	-89.565	-81.924	-73.764	-67.288	-62.922	-60.105	-57.016	-54.082	-51.039	-45.66	-39.171	-31.969	-23.29	-14.136	-6.894	0.75309	7.0285	12.86	17.655	22.07	24.229	26.17	25.576	26.034	27.78	30.116	33.463	38.307	43.814	49.948	57.674	66.071	75.623	86.256	96.678	106.25	114.66	121.44	125.93	129.59	121.71	123.1	123.6	124.48	134.12	131.84	129.61	128	125.88	122.63	118.9	115.8	112.49	108.18	104.24	100.79	98.643	96.897	94.968	92.804	93.049	92.787	92.751	93.489	93.908	95.339	95.235	95.426	94.466	92.135	88.999	86.503	82.601	78.117	74.151	69.897	66.58	62.806	59.013	56.377	55.977	55.353	56.199	54.608	56.858	58.29	59.444	59.73	62.12	64.794	65.146	66.828	67.72	71.287	72.591	74.9	76.26	80.342	83.159	85.495	87.375	89.771	92.9	95.32	96.759	98.156	99.349	99.956	100.33	101.42	102.75	104.87	106.69	108.66	110.05	111.18	111.81	112.8	111.81	108.15	103.82	98.316	93.045	87.351	81.576	76.026	71.174	67.071	64.048	61.439	59.299	57.011	54.089	51.813	50.725	50.512	49.147	47.087	44.225	42.747	41.063	37.081	33.608	29.444	25.278	20.653	14.677	10.924	6.8212	2.5975	-1.5939	-6.0641	-9.6852	-12.96	-16.657	-18.917	-20.838	-22.258	-23.726	-26.491	-28.513	-30.79	-31.96	-33.178	-36.052	-37.546	-39.115	-41.911	-44.668	-47.181	-49.919	-52.837	-56.286	-58.962	-61.454	-62.566	-64.781	-66.542	-68.119	-69.621	-71.87	-74.374	-76.595	-78.913	-80.719	-81.809	-82.704	-82.33	-82.089	-81.3	-78.076	-76.142	-73.573	-71.152	-69.928	-66.855	-65.448	-63.014	-61.788	-61.355	-58.245	-54.805	-53.008	-51.891	-47.165	-44.338	-41.65	-39.545	-37.682	-34.469	-32.113	-31.644	-31.528	-29.595	-27.739	-26.465	-25.873	-24.688	-22.986	-21.826	-21.424	-21.348	-20.655	-18.616	-19.975	-17.966	-17.975	-18.849	-17.65	-16.349	-16.889	-16.352	-14.477	-14.017	-13.522	-11.705	-10.849	-9.6602	-8.8549	-8.5296	-8.7229	-8.2747	-6.7755	-6.8002	-6.1672	-6.6855	-7.0783	-6.5798	-6.2842	-6.3228	-6.2282	-6.5024	-8.3934	-8.2153	-9.4891	-11.01	-12.583	-15.411	-17.338	-18.909	-20.981	-23.436	-24.211	-26.451	-28.99	-31.263	-33.3	-36.679	-41.127	-46.909	-53.736	-61.584	-68.926	-76.057	-84.766	-93.706	-102.43
-2201.5	-2191	-2180.5	-2172	-2163.6	-2157	-2152.3	-2147.6	-2142.7	-2138.8	-2133.3	-2127.8	-2121.3	-2114.9	-2108.6	-2102.4	-2096.2	-2090.9	-2085.5	-2080	-2075.6	-2069.1	-2061.6	-2052.2	-2038.7	-2020.2	-1998.9	-1971.9	-1940.9	-1903.9	-1860.9	-1813.6	-1759.4	-1701.2	-1640.8	-1576.7	-1510.6	-1442.6	-1373.6	-1302.5	-1229.3	-1157.3	-1089.9	-1028.5	-975.64	-927.26	-881.46	-838.43	-799.07	-763.18	-729.29	-695.29	-657.27	-617.26	-576.27	-536.27	-498.37	-462.58	-429.84	-400.06	-372.23	-343.42	-315.66	-288.63	-261.38	-237.27	-216.5	-197.47	-183.25	-171.44	-164.1	-159.52	-157.8	-157.9	-158.99	-159.22	-157.56	-154.47	-148.41	-140.6	-130.91	-121.13	-111.21	-103.46	-94.776	-86.988	-80.076	-74.959	-71.399	-69.016	-66.264	-62.489	-58.089	-51.194	-44.354	-35.631	-28.547	-19.983	-11.296	-3.2765	3.4722	10.716	16.303	19.974	22.697	24.695	26.12	28.067	29.614	31.766	34.268	38.666	45.083	52.827	60.879	69.222	80.205	90.975	99.692	106.02	111.75	116.45	120.31	122.19	124.01	124.08	122.91	122.73	121.48	120.75	118.59	117.57	114.77	112.65	109.48	106.44	103.7	100.47	98.305	96.357	93.216	92.905	91.638	91.933	91.436	92.014	93.697	93.909	93.91	94.204	93.885	92.587	91.003	88.964	85.33	81.554	78.148	73.856	69.584	66.283	62.792	59.606	56.697	55.758	55.426	54.272	53.45	52.881	55.542	56.507	56.748	57.753	58.837	61.973	63.295	65.006	66.186	68.886	71.382	74.558	76.739	78.662	81.9	84.141	85.978	88.713	91.375	93.592	95.42	96.226	96.874	97.812	100.15	101.42	103.49	106.34	107.72	110.85	113.2	113.92	114.48	114.42	113.01	108.56	104.01	98.232	93.519	87.248	81.069	75.824	71.056	67.805	64.09	59.587	57.024	55.344	53.526	50.55	48.668	47.322	46.42	44.482	42.861	40.861	38.653	36.673	34.204	29.952	27.042	22.943	17.625	13.103	8.911	5.4425	1.2827	-2.5351	-6.9111	-9.7224	-11.815	-14.117	-16.695	-19.193	-21.395	-24.133	-25.489	-26.711	-29.291	-29.707	-32.188	-34.978	-36.507	-39.108	-42.515	-45.378	-49.332	-52.121	-53.648	-56.926	-58.531	-60.836	-61.798	-62.088	-64.016	-65.991	-66.605	-68.543	-70.481	-72.67	-75.206	-76.369	-77.163	-77.393	-78.297	-77.93	-78.287	-76.17	-74.484	-73.595	-73.337	-72.323	-70.223	-70.103	-69.178	-67.698	-64.573	-60.88	-58.554	-56.175	-53.04	-48.571	-47.008	-44.104	-41.707	-39.462	-37.922	-36.217	-34.979	-33.387	-31.055	-29.605	-27.622	-26.776	-26.757	-25.905	-24.218	-23.512	-24.185	-22.988	-22.052	-22.05	-22.41	-22.199	-21.29	-20.024	-18.794	-18.492	-17.633	-16.341	-14.781	-13.471	-13.289	-12.286	-11.96	-10.202	-10.443	-10.414	-9.6824	-8.9821	-9.1518	-8.8928	-8.824	-8.3342	-8.6228	-8.8243	-10.593	-10.835	-11.626	-12.948	-12.857	-14.687	-16.538	-18.07	-19.825	-21.17	-23.091	-23.98	-25.353	-27.816	-29.739	-32.752	-37.029	-42.354	-48.039	-56.066	-64.959	-73.297	-83.63	-94.352	-104.55	-114.4
-2182.6	-2173	-2163.5	-2155.1	-2147.6	-2142	-2136	-2131.1	-2127.2	-2123.5	-2119.1	-2113.6	-2108.1	-2101.7	-2096.4	-2091.2	-2086	-2081.5	-2077	-2072.6	-2067.1	-2060.6	-2053.2	-2043	-2027.7	-2006.5	-1982.3	-1954.3	-1921.3	-1883.3	-1840.3	-1791	-1735.5	-1674	-1611.6	-1545.3	-1474.3	-1401.3	-1325.3	-1247.3	-1170.1	-1095.8	-1029.5	-969.3	-914.58	-864.77	-821	-781.23	-744.3	-711.07	-677.94	-643.17	-606.29	-567.29	-528.27	-491.06	-455.33	-421.54	-389.74	-360.73	-334.24	-308.41	-284.18	-259.92	-237.2	-216.32	-198.11	-182.84	-172.13	-164.34	-159.62	-157.79	-158.15	-160.62	-163.03	-164.99	-164.57	-162.51	-159.96	-155.12	-148.31	-139.98	-131.19	-122.11	-112.74	-104.99	-98.316	-91.742	-85.956	-82.216	-78.334	-75.593	-70.96	-66.797	-60.234	-52.31	-44.55	-36.205	-26.444	-17.575	-8.661	-0.10655	7.7951	13.574	18.435	23.054	25.984	28	28.883	29.419	32.433	36.231	42.724	49.121	56.491	64.808	74.234	83.252	91.646	97.889	101.07	105.08	106.81	108.45	109.82	111.23	109.72	109.15	109.36	109.57	108.1	106.16	105.35	104.39	102.24	99.645	96.666	94.44	92.064	89.467	88.354	88.005	87.71	87.895	89.274	89.656	91.564	92.138	92.878	92.268	91.507	90.949	89.609	86.424	83.607	80.813	77.898	73.596	69.36	66.494	62.944	60.153	57.28	55.888	54.055	53.369	53.282	53.286	52.598	53.037	54.692	55.884	56.155	57.066	60.264	61.557	63.238	64.226	68.939	71.25	73.216	74.626	77.412	80.614	83.069	85.036	85.907	88.008	90.237	91.714	93.229	94.417	96.746	99.036	100.9	103.21	105.07	108.47	111.06	113.17	113.46	112.89	111.89	109.45	104.48	99.498	95.123	88.876	83.289	78.214	72.383	67.307	64.024	60.971	58.587	55.966	54.656	52.322	50.836	48.529	47.69	47.138	46.57	45.153	43.314	42.11	40.734	38.365	34.832	30.757	26.309	22.078	17.063	13.795	10.326	6.4676	1.0899	-2.6485	-5.6998	-7.9243	-10.392	-13.542	-16.834	-17.989	-19.068	-21.67	-24.254	-25.238	-27.55	-29.782	-32.467	-35.22	-38.179	-40.816	-44.586	-47.184	-49.883	-51.563	-53.39	-54.375	-55.17	-56.791	-57.362	-57.978	-59.275	-60.39	-62.982	-65.042	-67.341	-69.735	-72.041	-74.516	-75.42	-76.52	-77.244	-77.785	-78.013	-77.508	-77.241	-77.121	-77.529	-77.865	-77.137	-76.188	-74.102	-72.738	-70.211	-66.16	-63.445	-61.03	-58.654	-55.022	-51.202	-46.928	-45.047	-42.655	-39.949	-36.312	-34.868	-33.935	-31.4	-30.02	-29.34	-29.193	-28.367	-26.969	-26.71	-26.402	-25.416	-24.976	-23.862	-24.558	-23.783	-23.362	-22.12	-20.451	-19.67	-18.663	-17.461	-15.838	-14.756	-14.171	-13.097	-12.951	-12.553	-11.743	-11.511	-11.047	-10.555	-10.116	-10.833	-10.187	-10.156	-11.578	-12.759	-12.762	-14.021	-14.921	-15.039	-16.969	-18.504	-18.969	-19.977	-22.026	-22.64	-23.735	-25.113	-27.234	-29.279	-33.36	-36.5	-41.809	-49.009	-56.982	-67.053	-77.839	-89.242	-101.06	-112.23	-123.02
